17122 17046 17006 16876 16844 16719 16707 16626 16402 16271 16032 15816 15742 15579 15450 15278 15178 15078 14973 14894 14807 14756 14778 14602 14566 14394 14196 14037 13982 13848 13629 13510 13349 13176 13113 12908 12758 12679 12557 12511 12332 12293 12275 12235 12248 12194 12092 11912 11764 11713 11639 11474 11332 11245 11150 11083 11057 11068 11035 11051 11210 11136 10916 10907 10857 10843 10808 10796 10825 10860 10782 10872 10912 10998 10947 10984 11009 10824 10781 10744 10692 10692 10830 10835 10788 10789 10874 10892 10979 10954 10874 10787 10687 10574 10476 10375 10386 10335 10298 10122 10066 9917 9842 9804 9803 9672 9410 9136 8820 8660 8525 8512 8305 8432 8433 8544 8641 8571 8531 8589 8624 8687 8871 8803 8814 8912 8971 9054 9228 9173 9169 9192 9241 9470 9618 9760 9824 9909 9935 10072 10102 10253 10232 10330 10447 10487 10434 10526 10555 10555 10436 10491 10431 10416 10501 10457 10549 10540 10542 10592 10612 10680 10750 10934 11081 11362 11503 11685 11827 12035 12260 12396 12430 12573 12624 12769 12880 12939 13095 13078 13174 13269 13322 13406 13535 13532 13487 13586 13590 13760 13857 14064 14192 14137 14120 13886 13678 13580 13444 13302 13199 13115 13074 13064 13134 13154 13107 13034 13016 13125 13317 13235 13267 13425 13474 13449 13523 13644 13801 13967 14274 14420 14647 14727 14836 14915 14980 15052 15272 15208 15233 15120 15059 15208 15248 15430 15459 15538 15605 15763 15750 15882 16007 16033 16121 16376 16575 16698 16908 16839 16938 16959 16944 16999 17036 17105 17246
17345 17267 17123 17018 16848 16824 16799 16658 16508 16340 16242 15984 15811 15670 15453 15279 15173 15117 15053 15003 15045 14994 14911 14744 14676 14584 14366 14087 13903 13693 13484 13328 13254 13146 13045 12917 12886 12714 12665 12583 12495 12396 12224 12207 12154 12111 12172 12028 11945 11788 11634 11498 11377 11319 11280 11194 11088 10977 10969 10988 11080 11059 11016 10823 10755 10747 10821 10776 10829 10802 10886 10973 10972 10886 10895 10885 10981 10957 10828 10752 10609 10708 10789 10783 10727 10892 10944 10921 11017 11036 10934 10846 10735 10600 10483 10407 10333 10323 10370 10262 10121 10004 9830 9736 9626 9524 9357 9165 8855 8751 8601 8556 8421 8534 8623 8688 8687 8644 8605 8589 8648 8750 8891 8906 8904 9035 9120 9178 9278 9276 9336 9272 9337 9598 9743 9926 10003 10126 10134 10156 10254 10345 10341 10420 10534 10529 10524 10666 10701 10652 10482 10535 10506 10422 10462 10453 10553 10503 10526 10555 10624 10716 10762 10940 11049 11297 11420 11724 11974 12126 12257 12317 12385 12486 12674 12762 12774 12957 13100 13155 13293 13253 13305 13427 13554 13532 13551 13645 13635 13771 13815 14064 14251 14205 14061 13859 13631 13474 13347 13297 13158 13105 13154 13219 13240 13194 13126 13128 13056 13221 13323 13380 13391 13450 13504 13572 13592 13734 13837 13942 14154 14327 14596 14679 14835 14955 15027 15186 15305 15372 15321 15261 15188 15344 15483 15544 15545 15600 15623 15721 15724 15849 15924 16049 16203 16417 16615 16767 16875 16903 16986 17028 16970 17143 17195 17364 17515
17415 17272 17196 17038 17006 16955 16872 16701 16585 16501 16273 16099 15938 15739 15655 15525 15371 15252 15226 15200 15194 15096 15006 14839 14665 14540 14419 14163 13871 13678 13398 13379 13262 13170 13030 13052 12955 12859 12798 12641 12536 12428 12291 12162 12187 12096 12121 12069 12020 11948 11792 11561 11438 11427 11337 11156 11121 11064 10953 10911 10986 11033 10919 10832 10727 10860 10849 10791 10869 10844 10944 11015 11131 11048 10888 10838 10903 10827 10747 10743 10643 10689 10786 10777 10736 10820 10941 10946 10955 10966 10878 10920 10866 10769 10663 10510 10462 10459 10466 10325 10203 10091 9848 9742 9605 9549 9411 9128 8981 8760 8607 8537 8475 8555 8665 8650 8631 8652 8575 8670 8717 8775 8927 8880 8947 9012 9115 9285 9320 9443 9517 9553 9539 9756 9939 10098 10223 10288 10337 10402 10435 10450 10486 10592 10685 10734 10684 10745 10775 10660 10487 10521 10541 10444 10523 10557 10656 10635 10578 10592 10575 10667 10867 11001 11027 11359 11559 11710 11981 12109 12348 12453 12515 12546 12719 12803 12816 12996 13157 13196 13266 13344 13342 13505 13733 13702 13774 13727 13710 13807 13844 14018 14105 14081 13906 13845 13655 13544 13408 13321 13214 13184 13262 13275 13337 13287 13253 13191 13122 13223 13303 13385 13410 13399 13521 13516 13590 13733 13826 14047 14278 14325 14584 14777 14913 15002 15134 15225 15270 15417 15407 15295 15303 15343 15479 15524 15561 15610 15646 15647 15734 15808 15895 16089 16199 16374 16580 16716 16803 16944 17014 17104 17140 17269 17346 17514 17648
17481 17290 17193 17083 17062 17017 17006 16895 16717 16569 16401 16122 15959 15795 15753 15577 15465 15455 15434 15360 15305 15272 15115 14938 14758 14521 14382 14086 13836 13651 13419 13331 13216 13185 13092 13088 13126 12974 12898 12814 12617 12420 12317 12210 12225 12210 12120 12194 12220 12098 11869 11746 11577 11484 11270 11212 11168 11104 11037 10934 10938 10959 10860 10863 10826 10886 10929 10894 10849 10993 11070 11096 11203 11038 10999 10917 10874 10742 10682 10672 10636 10727 10716 10719 10694 10865 10922 10967 10899 10863 10825 10885 10932 10815 10792 10599 10470 10408 10448 10375 10279 10183 9962 9825 9594 9465 9345 9143 8989 8901 8722 8634 8544 8662 8654 8585 8528 8569 8638 8699 8706 8746 8875 8968 9104 9181 9238 9291 9284 9506 9610 9653 9739 9862 10096 10220 10319 10339 10444 10556 10589 10590 10709 10814 10803 10872 10836 10847 10909 10743 10599 10510 10529 10539 10673 10688 10652 10648 10543 10518 10598 10769 10974 11093 11098 11373 11576 11732 11980 12147 12365 12473 12559 12593 12728 12769 12827 12949 13113 13230 13345 13435 13460 13681 13797 13824 13961 13900 13897 13982 13943 13977 14078 13942 13801 13742 13744 13663 13527 13411 13204 13301 13328 13415 13395 13385 13254 13122 13089 13159 13342 13489 13540 13466 13484 13555 13587 13723 13829 14071 14277 14370 14582 14863 15063 15211 15307 15376 15359 15405 15437 15403 15389 15461 15603 15609 15602 15655 15741 15734 15660 15839 15962 16090 16165 16395 16544 16634 16822 16868 17035 17110 17293 17360 17472 17648 17724
17480 17262 17159 17077 16941 16921 16926 16792 16642 16426 16296 16051 15958 15803 15802 15531 15406 15433 15387 15284 15236 15227 15129 14923 14740 14604 14413 14186 13848 13630 13417 13289 13124 13095 13044 13011 13043 12892 12813 12674 12594 12474 12271 12148 12168 12183 12151 12139 12134 12030 11831 11679 11426 11368 11234 11125 11073 11065 11080 10962 11019 10911 10902 10837 10717 10759 10879 10827 10883 10994 11075 11033 11174 11017 11011 10948 10860 10804 10765 10763 10638 10702 10650 10704 10772 10808 10827 10739 10710 10644 10637 10767 10768 10671 10727 10500 10389 10349 10303 10194 10190 10015 9749 9614 9466 9457 9304 9115 8980 8771 8614 8507 8453 8493 8506 8497 8571 8641 8724 8813 8779 8809 8883 8957 9072 9134 9177 9219 9347 9440 9579 9646 9674 9828 10021 10148 10305 10329 10418 10471 10544 10576 10678 10740 10761 10806 10806 10902 10999 10920 10739 10628 10620 10680 10742 10747 10752 10681 10582 10609 10549 10744 10935 11060 11182 11370 11640 11713 11917 12001 12201 12394 12467 12566 12664 12769 12807 12862 13080 13145 13141 13290 13350 13590 13664 13641 13696 13722 13729 13781 13800 13817 13995 13891 13724 13706 13606 13556 13490 13358 13237 13328 13340 13306 13350 13256 13167 13058 12930 13075 13211 13354 13390 13477 13458 13483 13560 13734 13851 14193 14387 14513 14629 14982 15198 15247 15300 15314 15415 15409 15514 15521 15572 15618 15670 15567 15554 15700 15824 15791 15650 15875 15933 16087 16168 16303 16432 16647 16725 16854 16957 17207 17364 17357 17527 17634 17706
17388 17275 17104 16977 16865 16863 16751 16655 16465 16377 16218 16055 15948 15835 15800 15565 15456 15459 15375 15265 15218 15221 15101 14967 14775 14565 14431 14182 13834 13674 13490 13272 12965 13028 13045 12977 12940 12872 12822 12654 12558 12416 12248 12104 11985 12054 12112 12095 12117 11993 11754 11560 11386 11241 11188 11047 10929 10961 11053 10973 10988 10982 10851 10742 10690 10723 10816 10904 10934 11040 11062 11041 11148 11044 10918 10876 10865 10824 10878 10867 10762 10705 10625 10672 10757 10722 10670 10654 10607 10520 10560 10648 10679 10628 10536 10461 10428 10301 10232 10074 10010 9753 9597 9420 9351 9367 9258 9119 8858 8712 8583 8368 8259 8329 8417 8550 8596 8712 8829 8818 8933 8921 9010 9006 9081 9180 9164 9227 9354 9446 9513 9594 9612 9786 10055 10200 10405 10415 10392 10525 10570 10722 10768 10751 10848 10898 10889 10928 11073 10992 10890 10884 10769 10777 10902 10816 10732 10628 10616 10577 10568 10820 11024 11248 11369 11523 11701 11822 11847 11929 12061 12231 12390 12540 12682 12812 12817 12847 12934 13018 13044 13134 13268 13448 13533 13602 13550 13604 13639 13630 13634 13751 13973 13809 13543 13530 13403 13389 13431 13361 13246 13250 13255 13253 13276 13191 12980 12980 12893 12958 13073 13209 13301 13450 13492 13545 13550 13766 13882 14229 14486 14578 14753 15023 15230 15304 15372 15347 15391 15460 15499 15529 15629 15690 15776 15641 15609 15754 15784 15756 15671 15842 15902 15974 16069 16218 16346 16555 16659 16824 16975 17146 17311 17434 17525 17527 17614
17377 17152 16960 16897 16793 16682 16624 16558 16313 16269 16196 15992 15920 15773 15650 15560 15363 15307 15190 15059 15030 15004 14920 14911 14827 14610 14387 14203 13903 13663 13471 13173 12930 12977 13028 12874 12861 12772 12678 12622 12455 12319 12222 12074 11973 11963 12009 11995 11962 11834 11584 11432 11238 11044 10971 10881 10861 10880 10900 10864 10919 10852 10864 10675 10644 10721 10743 10820 10834 10872 10931 10994 11060 10915 10861 10826 10696 10804 10780 10860 10914 10769 10650 10716 10764 10666 10649 10568 10576 10530 10509 10550 10605 10576 10559 10446 10352 10263 10182 9967 9911 9760 9518 9414 9309 9305 9260 8999 8778 8747 8565 8423 8201 8309 8372 8537 8679 8750 8832 8828 8980 8941 8988 9140 9237 9185 9146 9284 9378 9444 9581 9625 9641 9841 10074 10202 10347 10315 10423 10515 10554 10674 10710 10791 10840 10822 10924 10940 11105 11010 11016 10942 10791 10801 10871 10903 10941 10735 10734 10710 10700 10828 11055 11223 11494 11594 11658 11663 11723 11854 12007 12200 12364 12393 12526 12596 12738 12730 12693 12813 12838 12966 13139 13334 13426 13339 13322 13364 13436 13504 13533 13625 13850 13663 13538 13469 13313 13332 13317 13307 13274 13254 13197 13247 13174 13072 12964 12929 12793 12878 13082 13164 13183 13288 13420 13432 13519 13701 13989 14310 14530 14629 14842 15156 15332 15413 15431 15414 15370 15458 15481 15566 15588 15682 15749 15752 15656 15837 15781 15833 15844 15861 15883 15921 16088 16131 16270 16424 16621 16753 16992 17035 17197 17338 17465 17480 17573
17293 17042 16828 16773 16611 16533 16505 16415 16271 16167 16140 15987 15894 15753 15618 15470 15229 15207 15121 15007 14953 14963 14847 14763 14780 14616 14329 14135 13992 13771 13537 13219 12894 12841 12917 12851 12776 12593 12491 12495 12419 12343 12174 12050 11880 11896 11925 11803 11809 11568 11446 11247 11089 10873 10781 10694 10723 10800 10839 10858 10848 10820 10768 10683 10715 10768 10697 10758 10781 10756 10783 10901 11032 10890 10712 10711 10644 10696 10800 10927 10956 10829 10760 10723 10727 10656 10690 10651 10526 10534 10493 10490 10469 10448 10474 10401 10322 10251 10055 9959 9908 9733 9533 9462 9329 9295 9179 8975 8808 8754 8631 8468 8204 8323 8424 8649 8764 8843 8893 8915 8969 9013 9029 9093 9278 9269 9248 9338 9312 9443 9550 9650 9709 9854 10089 10271 10391 10311 10334 10431 10457 10484 10589 10821 10938 10885 10931 11028 11096 11168 11128 10980 10941 10928 10951 11015 11027 10865 10766 10712 10755 10850 11019 11303 11516 11527 11556 11569 11662 11768 11885 12043 12243 12250 12344 12477 12602 12613 12573 12584 12624 12841 13045 13227 13308 13264 13149 13220 13200 13329 13387 13473 13650 13591 13499 13352 13261 13256 13205 13154 13183 13211 13223 13123 13032 13012 12963 12844 12696 12800 12976 12994 13130 13122 13223 13391 13527 13783 14117 14358 14518 14714 14865 15197 15432 15439 15496 15458 15375 15350 15404 15487 15653 15746 15840 15826 15807 15912 15894 15956 15927 15899 15893 15939 16076 16112 16254 16308 16466 16757 16924 17042 17199 17255 17366 17525 17608
17241 17045 16809 16725 16597 16547 16509 16431 16253 16198 16098 16024 15862 15708 15611 15368 15171 15198 15126 15036 14851 14891 14825 14739 14819 14495 14242 14110 13892 13619 13394 13181 12889 12847 12790 12631 12591 12500 12348 12321 12315 12165 12088 12047 11934 11905 11865 11732 11617 11486 11397 11187 11013 10893 10739 10768 10674 10774 10842 10853 10805 10807 10696 10647 10578 10591 10500 10591 10637 10697 10678 10787 10909 10770 10720 10672 10652 10629 10687 10837 10907 10791 10677 10694 10604 10530 10529 10482 10450 10446 10412 10422 10495 10449 10414 10380 10367 10255 9965 9936 9794 9703 9565 9369 9314 9198 9083 8944 8801 8686 8503 8307 8183 8348 8458 8659 8742 8774 8906 9022 9084 9103 9060 9047 9175 9183 9213 9313 9381 9486 9484 9567 9510 9715 9964 10074 10356 10313 10248 10398 10471 10593 10734 10837 10859 10958 11057 11073 10987 11072 11130 11049 10998 10934 10906 11033 11113 10991 10996 10840 10820 11037 11137 11387 11500 11589 11628 11573 11737 11851 11960 12160 12285 12280 12228 12341 12408 12373 12363 12475 12510 12586 12769 12914 13127 13114 13035 13082 13105 13160 13237 13380 13488 13455 13369 13211 13168 13227 13213 13188 13237 13222 13067 12987 13004 12939 12970 12870 12693 12795 12961 13044 13204 13273 13315 13450 13555 13868 14189 14318 14509 14670 14911 15128 15437 15382 15465 15552 15514 15540 15557 15664 15729 15760 15905 15919 15825 15880 15945 16030 16035 16056 15971 16134 16260 16347 16425 16479 16544 16749 16896 17016 17229 17379 17421 17521 17612
17066 17006 16895 16714 16645 16536 16413 16401 16355 16254 16036 16016 15887 15721 15536 15313 15204 15126 15012 14915 14781 14816 14814 14776 14768 14412 14177 13997 13742 13464 13309 13033 12834 12735 12651 12452 12379 12353 12236 12240 12149 12158 12047 11996 11894 11816 11707 11644 11532 11407 11316 11130 11040 10909 10765 10731 10752 10763 10814 10804 10735 10682 10565 10506 10478 10451 10393 10528 10584 10505 10546 10772 10890 10811 10802 10692 10548 10533 10581 10754 10807 10723 10635 10618 10604 10501 10469 10440 10333 10419 10433 10509 10470 10407 10281 10360 10331 10191 9928 9799 9731 9586 9473 9364 9325 9174 9034 8998 8895 8624 8470 8284 8138 8296 8462 8577 8679 8715 8839 9005 9111 9167 9167 9103 9140 9161 9144 9184 9324 9387 9489 9496 9405 9562 9750 9944 10267 10261 10201 10396 10479 10588 10768 10858 10905 10973 11057 10995 11006 11088 11196 11064 11017 11029 10986 11046 11136 11126 11123 11009 10971 11129 11321 11467 11593 11600 11605 11612 11715 11813 11950 12131 12206 12225 12152 12122 12204 12132 12176 12248 12314 12459 12493 12649 12862 12984 13003 12996 12928 12978 13139 13311 13362 13339 13248 13189 13072 13078 13161 13167 13220 13123 12994 12981 12859 12915 12895 12837 12653 12767 12931 13092 13196 13275 13441 13553 13698 13945 14155 14342 14481 14625 14881 15060 15340 15387 15508 15568 15536 15582 15730 15787 15836 15903 15851 15870 15957 15916 15966 16077 16177 16118 16127 16295 16342 16372 16492 16452 16506 16691 16997 17086 17138 17368 17593 17615 17737
16953 16846 16899 16687 16560 16512 16476 16450 16382 16241 16020 15909 15791 15694 15497 15348 15138 15093 14989 14884 14823 14840 14760 14656 14658 14410 14121 13983 13664 13479 13226 12971 12783 12694 12605 12465 12312 12293 12158 12143 12115 11979 11917 11833 11727 11628 11610 11557 11492 11343 11215 10991 10911 10919 10834 10829 10782 10669 10713 10619 10605 10597 10440 10401 10439 10340 10332 10494 10531 10439 10526 10607 10726 10715 10669 10634 10556 10504 10571 10747 10828 10768 10630 10625 10679 10547 10438 10355 10278 10289 10266 10334 10313 10319 10239 10310 10307 10060 9862 9767 9703 9504 9430 9361 9323 9154 9048 9062 8961 8650 8468 8253 8177 8373 8535 8646 8742 8814 8923 9003 9133 9164 9212 9119 9150 9181 9169 9135 9303 9343 9378 9425 9368 9544 9648 9838 10071 10130 10184 10339 10340 10504 10718 10800 10926 10964 11105 10991 11043 11064 11116 11054 11145 11102 11123 11143 11112 11252 11245 11229 11203 11257 11392 11523 11524 11589 11625 11661 11704 11700 11790 12030 12165 12087 11973 12000 12100 12043 12140 12190 12184 12234 12327 12465 12616 12677 12826 12854 12783 12819 12949 13095 13161 13107 13073 13064 13056 13036 13107 13163 13170 13066 12933 12839 12758 12763 12859 12755 12632 12835 12971 13113 13184 13292 13363 13517 13744 13856 14083 14348 14515 14738 15035 15253 15449 15490 15531 15583 15542 15697 15835 15950 15979 16058 16025 16029 16139 16040 16116 16174 16298 16272 16286 16420 16466 16488 16472 16500 16494 16722 17069 17199 17219 17388 17649 17733 17775
16818 16747 16795 16681 16521 16522 16447 16400 16302 16141 16044 15784 15645 15546 15413 15284 15166 15049 15000 14891 14783 14715 14764 14667 14656 14404 14193 13928 13637 13394 13179 12919 12680 12585 12460 12357 12148 12208 12158 12048 12014 11923 11799 11701 11674 11617 11475 11460 11349 11179 11094 10900 10778 10821 10846 10723 10716 10633 10576 10593 10525 10519 10426 10362 10318 10297 10309 10364 10391 10419 10412 10601 10686 10611 10658 10595 10546 10512 10593 10745 10862 10765 10691 10730 10709 10558 10508 10372 10343 10268 10208 10245 10220 10266 10261 10262 10180 9990 9861 9731 9659 9480 9372 9246 9237 9217 9072 9015 8911 8717 8486 8303 8239 8381 8502 8616 8851 8990 9017 9083 9123 9150 9204 9268 9223 9101 9071 9106 9176 9181 9208 9272 9343 9532 9612 9757 9966 9984 10099 10204 10311 10412 10633 10770 10835 10976 11040 11034 11021 11072 11128 11148 11293 11279 11310 11213 11198 11323 11365 11320 11340 11442 11519 11579 11533 11579 11666 11615 11666 11684 11728 11862 12032 11989 11863 11865 11940 11933 11996 12036 12022 12038 12168 12276 12397 12486 12618 12711 12732 12818 12801 12919 12979 13001 12999 13056 13088 12972 12957 13008 13003 13027 12977 12881 12747 12759 12719 12673 12682 12892 12993 12989 13080 13180 13360 13552 13674 13863 14132 14270 14528 14781 15098 15347 15493 15491 15506 15562 15665 15842 16018 16113 16130 16175 16145 16196 16254 16208 16150 16194 16297 16437 16561 16529 16618 16565 16474 16450 16519 16805 17034 17228 17306 17479 17693 17769 17930
16740 16718 16800 16626 16524 16528 16379 16302 16173 16094 16048 15802 15738 15591 15483 15258 15085 15087 15095 14940 14837 14882 14885 14793 14632 14322 14134 13897 13659 13413 13274 13010 12797 12676 12518 12321 12194 12192 12245 12154 12102 12080 11962 11921 11851 11688 11605 11394 11275 11183 11073 10920 10780 10798 10796 10735 10666 10562 10540 10565 10525 10496 10358 10319 10192 10217 10254 10314 10275 10325 10446 10588 10581 10562 10651 10633 10576 10527 10546 10608 10709 10664 10568 10505 10537 10425 10363 10372 10235 10225 10125 10138 10112 10121 10237 10111 10013 9874 9864 9702 9687 9520 9482 9276 9183 9166 9087 8944 8904 8768 8499 8380 8296 8418 8544 8772 8948 9040 9033 9125 9143 9159 9133 9232 9198 9114 9172 9204 9191 9189 9216 9352 9390 9511 9653 9782 9955 10095 10236 10244 10374 10461 10686 10847 10867 11007 11136 11161 11210 11127 11227 11221 11293 11331 11250 11338 11319 11409 11349 11399 11430 11448 11495 11572 11532 11620 11662 11657 11550 11687 11680 11800 11957 11860 11850 11885 11863 11928 11947 12016 12024 12064 12179 12249 12299 12325 12484 12485 12618 12636 12572 12689 12695 12810 12817 12834 12876 12865 12903 12936 12927 13003 12947 12830 12674 12691 12740 12716 12717 12898 13015 13024 12963 13191 13360 13453 13595 13800 14105 14297 14615 14825 15091 15380 15608 15697 15700 15653 15682 15708 15844 15929 15993 16006 16070 16135 16225 16195 16108 16183 16257 16393 16481 16490 16659 16548 16492 16509 16533 16717 16990 17158 17188 17419 17616 17694 17841
16788 16743 16766 16663 16601 16494 16410 16225 16077 16075 16003 15895 15742 15596 15459 15239 15064 15096 15157 15118 15007 15010 14922 14783 14647 14372 14165 13979 13759 13584 13302 13040 12804 12711 12525 12328 12220 12337 12351 12292 12272 12198 12126 11965 11902 11829 11658 11488 11284 11200 11150 10986 10866 10829 10874 10778 10669 10595 10451 10503 10440 10363 10198 10155 10078 10131 10118 10187 10256 10337 10419 10539 10539 10633 10636 10559 10524 10516 10494 10570 10537 10500 10372 10307 10297 10295 10320 10278 10212 10153 10124 10118 10049 10061 10104 10051 9971 9858 9840 9773 9605 9594 9518 9376 9172 9072 9053 8990 8848 8754 8615 8438 8254 8328 8528 8813 9010 8990 9087 9115 9196 9114 9061 9082 9119 9148 9253 9341 9321 9290 9314 9346 9472 9681 9781 9946 10048 10108 10249 10419 10495 10597 10727 10836 10975 11131 11208 11262 11334 11229 11250 11255 11340 11281 11268 11339 11395 11397 11456 11436 11501 11590 11557 11585 11526 11566 11553 11556 11547 11595 11618 11710 11861 11781 11748 11739 11769 11841 11829 11847 11980 12001 12101 12138 12080 12259 12348 12358 12475 12474 12465 12395 12452 12617 12673 12640 12611 12638 12737 12789 12815 12905 12955 12833 12679 12716 12776 12801 12745 12802 12921 12933 12951 13161 13365 13388 13471 13774 14083 14394 14623 14765 15020 15357 15692 15778 15778 15651 15595 15640 15739 15786 15870 15987 16082 16098 16097 16118 16070 16110 16197 16312 16466 16476 16602 16519 16523 16549 16602 16793 16904 17047 17161 17385 17620 17639 17684
16754 16768 16760 16706 16577 16428 16393 16206 16020 16031 15939 15879 15738 15531 15456 15252 15158 15134 15208 15082 15032 14992 14858 14806 14672 14501 14257 14059 13914 13611 13361 13043 12827 12725 12579 12433 12337 12308 12304 12354 12412 12287 12180 11988 11890 11805 11721 11418 11267 11158 11128 11064 10939 10953 10874 10760 10582 10499 10462 10434 10309 10265 10064 10096 10024 10123 10164 10195 10321 10298 10399 10460 10497 10515 10546 10514 10556 10508 10563 10511 10518 10494 10313 10292 10195 10129 10125 10133 10152 10000 9986 9970 9829 9974 9952 9919 9954 9824 9863 9661 9522 9545 9464 9287 9236 9170 9196 8992 8851 8724 8595 8483 8357 8460 8621 8741 8962 9047 9093 9065 9184 9197 9099 9185 9188 9143 9227 9357 9359 9377 9355 9369 9524 9671 9778 9932 10024 10190 10325 10467 10597 10750 10838 10922 10955 11046 11127 11308 11338 11240 11307 11333 11349 11309 11323 11293 11438 11482 11448 11528 11570 11647 11572 11556 11576 11524 11616 11607 11579 11597 11538 11629 11714 11725 11695 11757 11729 11722 11814 11836 11865 11943 11930 11959 11892 12011 12219 12240 12357 12245 12256 12317 12301 12421 12411 12404 12451 12542 12680 12695 12846 12837 12897 12867 12803 12850 12776 12786 12865 12866 12877 12884 12933 13096 13367 13419 13519 13826 14024 14282 14534 14759 15086 15369 15696 15846 15827 15760 15668 15669 15702 15758 15704 15840 16011 15938 16008 16019 16065 16074 16117 16264 16323 16391 16457 16448 16549 16581 16665 16789 16990 17070 17236 17401 17575 17590 17647
16696 16649 16721 16655 16626 16474 16331 16213 16042 16006 15994 15926 15738 15561 15513 15292 15180 15195 15152 15057 15016 15007 14909 14765 14647 14559 14368 14148 13958 13706 13333 13137 12891 12775 12540 12475 12342 12375 12341 12446 12470 12288 12210 12039 11978 11844 11692 11454 11230 11156 11030 10985 11053 10937 10776 10653 10589 10421 10352 10379 10289 10139 10004 10028 9933 10013 10141 10259 10299 10388 10474 10400 10439 10454 10454 10543 10639 10544 10560 10440 10426 10406 10275 10229 10112 9994 9957 9947 9997 9930 9824 9769 9737 9826 9837 9811 9835 9778 9780 9638 9537 9456 9449 9319 9261 9203 9217 9101 8964 8854 8646 8564 8356 8526 8749 8800 8949 8999 8994 9024 9167 9210 9161 9194 9152 9161 9258 9265 9344 9419 9405 9437 9591 9697 9830 9904 10038 10162 10407 10552 10696 10799 10960 11023 10998 11083 11113 11305 11453 11303 11272 11314 11240 11268 11273 11303 11458 11525 11506 11554 11593 11670 11624 11596 11545 11561 11677 11615 11638 11621 11558 11580 11627 11605 11671 11641 11740 11693 11708 11830 11838 11743 11759 11737 11823 11909 12099 12119 12147 12114 11990 12076 12041 12154 12247 12345 12362 12455 12511 12648 12861 12892 12883 12904 12834 12892 12892 12898 12912 12868 12867 12894 12964 13113 13244 13321 13505 13821 14032 14243 14539 14847 15094 15492 15809 15859 15838 15865 15774 15703 15653 15593 15591 15651 15832 15845 15902 15903 15953 16000 16102 16137 16258 16265 16384 16419 16568 16742 16844 16939 17139 17166 17235 17407 17481 17516 17654
16790 16730 16568 16564 16511 16429 16373 16175 16019 16026 16022 15962 15802 15704 15579 15374 15246 15212 15116 15074 14951 14823 14753 14623 14584 14487 14360 14099 13946 13629 13365 13195 12936 12878 12633 12447 12318 12420 12395 12436 12393 12271 12151 12078 12067 11888 11708 11410 11252 11063 11032 11011 10875 10849 10700 10642 10518 10402 10318 10316 10175 10066 9920 9936 9905 10026 10131 10180 10154 10360 10439 10463 10515 10455 10467 10575 10550 10509 10490 10459 10523 10382 10270 10211 10116 10023 9964 9876 9931 9848 9758 9705 9539 9589 9604 9714 9726 9686 9588 9625 9545 9491 9459 9306 9185 9170 9150 9059 8857 8827 8591 8646 8542 8673 8893 8872 8964 9084 9090 9217 9321 9302 9232 9160 9175 9112 9222 9262 9214 9353 9428 9526 9665 9733 9972 10102 10149 10332 10503 10600 10815 10851 10979 11049 11064 11112 11129 11404 11506 11463 11418 11386 11389 11377 11450 11503 11573 11556 11617 11680 11684 11701 11674 11713 11611 11709 11726 11663 11732 11665 11618 11697 11667 11717 11699 11643 11687 11694 11620 11577 11598 11602 11576 11624 11780 11885 11875 12027 12050 11948 11922 11913 11870 12049 12074 12211 12157 12382 12492 12621 12814 12825 12748 12775 12737 12897 12906 12959 12851 12894 12977 13006 12983 13154 13274 13412 13591 13862 14066 14266 14637 14910 15165 15446 15740 15738 15758 15710 15734 15721 15600 15665 15616 15692 15814 15802 15858 15878 15984 16097 16200 16198 16254 16331 16379 16423 16572 16617 16767 16890 17076 17099 17175 17331 17473 17536 17498
16791 16681 16525 16484 16516 16425 16300 16204 16037 16026 15964 15855 15850 15807 15700 15520 15229 15082 15051 14944 14773 14768 14656 14603 14522 14398 14298 14131 13841 13591 13440 13304 13059 12949 12752 12579 12401 12402 12449 12380 12348 12280 12157 12131 12051 11840 11650 11467 11186 11037 10984 10937 10788 10759 10615 10595 10481 10385 10338 10214 10167 9965 9883 9886 9880 9949 10034 10012 10081 10296 10387 10465 10493 10457 10409 10531 10532 10444 10462 10451 10546 10439 10344 10276 10195 10037 9882 9832 9844 9770 9644 9559 9353 9367 9419 9479 9519 9486 9494 9498 9462 9471 9367 9327 9237 9232 9131 8962 8844 8786 8638 8681 8622 8784 8954 9047 9075 9090 9154 9305 9452 9307 9225 9240 9141 9072 9130 9117 9208 9353 9529 9677 9702 9819 10038 10135 10222 10354 10516 10623 10824 10933 11006 11012 11113 11130 11186 11432 11606 11568 11479 11416 11465 11491 11577 11536 11588 11564 11655 11627 11697 11692 11714 11728 11619 11726 11798 11773 11835 11797 11749 11773 11734 11780 11769 11697 11677 11646 11523 11428 11438 11439 11519 11581 11680 11746 11760 11921 12026 11962 11783 11739 11694 11855 11945 12028 11987 12228 12391 12657 12812 12773 12723 12756 12703 12859 12922 12938 12898 12951 13078 13096 13105 13226 13412 13490 13633 13846 14085 14340 14673 14961 15211 15452 15732 15728 15732 15625 15607 15647 15641 15642 15603 15662 15713 15691 15702 15837 15941 15998 16177 16184 16161 16232 16359 16485 16594 16606 16714 16798 16989 17101 17180 17370 17516 17480 17446
16729 16651 16580 16496 16477 16429 16297 16174 16160 16098 16016 16043 15948 15831 15722 15580 15309 15126 15127 14959 14780 14691 14610 14646 14584 14385 14372 14092 13893 13637 13449 13264 13052 12932 12792 12599 12506 12448 12520 12417 12447 12263 12158 12081 12045 11790 11449 11246 11066 11018 10865 10824 10831 10658 10615 10495 10415 10273 10291 10252 10111 10055 9961 9897 9935 9853 9846 9998 10022 10175 10306 10376 10449 10361 10290 10405 10530 10464 10379 10433 10501 10336 10303 10223 10134 9993 9971 9849 9674 9638 9532 9428 9235 9184 9181 9224 9277 9305 9357 9342 9276 9318 9242 9228 9139 9101 9071 8938 8862 8821 8682 8715 8686 8778 8923 9005 9006 9162 9201 9346 9496 9392 9321 9300 9229 9233 9212 9233 9230 9451 9559 9697 9721 9978 10176 10300 10463 10524 10575 10672 10829 10913 11002 11113 11209 11124 11208 11371 11596 11489 11481 11437 11525 11494 11623 11517 11527 11701 11764 11730 11754 11707 11733 11653 11604 11770 11751 11794 11915 11844 11831 11801 11783 11745 11617 11645 11549 11510 11427 11371 11376 11402 11508 11534 11558 11662 11742 11858 11879 11848 11708 11657 11555 11752 11773 11824 11936 12189 12304 12545 12671 12616 12633 12653 12556 12720 12830 12826 12873 12959 13022 13086 13066 13175 13394 13582 13750 13970 14142 14457 14779 15070 15253 15536 15757 15661 15712 15661 15608 15620 15586 15538 15538 15615 15659 15661 15669 15709 15837 16028 16124 16214 16248 16222 16319 16361 16498 16627 16778 16917 17116 17185 17244 17332 17504 17507 17501
16667 16575 16528 16563 16546 16448 16275 16204 16254 16138 16133 16105 16060 15965 15777 15624 15390 15215 15158 14909 14760 14648 14581 14612 14596 14429 14333 14190 13930 13692 13395 13249 13066 12979 12774 12662 12657 12604 12477 12470 12456 12283 12215 12007 11918 11577 11328 11220 10992 10901 10789 10731 10778 10642 10549 10400 10265 10246 10282 10187 10094 10028 9955 9931 9888 9810 9775 9871 9849 10065 10177 10246 10295 10298 10248 10301 10406 10321 10322 10358 10446 10344 10299 10144 10079 10050 9948 9842 9615 9496 9357 9172 9068 9027 9005 8972 8984 9090 9196 9152 9202 9131 9077 9036 9003 8981 9054 9013 8871 8811 8812 8863 8868 8895 9004 8976 9003 9176 9230 9384 9593 9517 9424 9294 9200 9293 9270 9276 9314 9496 9628 9755 9790 10085 10286 10425 10617 10623 10665 10685 10760 10905 11080 11173 11185 11172 11254 11465 11579 11438 11421 11477 11490 11519 11649 11622 11562 11736 11822 11818 11866 11849 11871 11796 11704 11763 11769 11921 11950 11923 11952 11879 11832 11747 11577 11518 11433 11393 11229 11251 11218 11322 11447 11487 11441 11506 11622 11725 11725 11636 11542 11500 11535 11593 11615 11772 11831 12088 12325 12450 12632 12512 12491 12510 12500 12532 12691 12774 12767 12966 13087 13123 13153 13208 13377 13610 13772 14044 14255 14571 14953 15183 15399 15562 15702 15692 15575 15619 15647 15579 15509 15457 15459 15519 15623 15679 15627 15701 15732 15905 16090 16183 16249 16210 16256 16381 16417 16534 16754 16913 17126 17223 17314 17364 17463 17405 17442
16674 16570 16412 16495 16419 16380 16328 16255 16242 16064 16063 16144 16119 15985 15800 15607 15449 15281 15125 14939 14676 14556 14569 14497 14467 14359 14185 13967 13805 13679 13417 13266 13127 13047 12888 12724 12696 12540 12378 12386 12263 12135 12049 12032 11892 11644 11383 11136 10992 10865 10737 10709 10709 10641 10498 10404 10297 10278 10279 10241 10206 10174 10048 10087 10079 9996 10016 10058 9982 10143 10286 10318 10296 10351 10328 10428 10399 10309 10338 10433 10514 10318 10249 10116 10045 9927 9856 9748 9580 9511 9313 9187 9117 9144 9030 9077 8984 9113 9163 9160 9246 9144 9084 9131 9101 9117 9107 8918 8795 8874 8924 8876 8757 8885 8944 8929 9024 9171 9194 9347 9507 9505 9355 9195 9094 9131 9202 9162 9212 9274 9401 9547 9675 9933 10067 10277 10466 10442 10508 10482 10610 10778 10826 10931 11073 11076 11265 11431 11474 11495 11481 11468 11454 11596 11745 11639 11672 11731 11826 11810 11726 11688 11714 11722 11555 11695 11775 11903 11956 11907 11953 11895 11866 11803 11631 11612 11544 11441 11360 11315 11264 11370 11474 11433 11527 11576 11593 11625 11774 11633 11532 11618 11700 11616 11713 11817 11916 12038 12235 12401 12534 12554 12566 12543 12497 12674 12802 12851 12915 13082 13192 13177 13207 13325 13410 13622 13798 14034 14234 14465 14839 15022 15232 15391 15667 15614 15617 15678 15592 15639 15612 15499 15526 15604 15663 15745 15685 15747 15715 15888 15987 16162 16240 16146 16266 16306 16341 16537 16699 16793 16924 17173 17267 17315 17450 17420 17500
16748 16519 16385 16377 16332 16391 16375 16231 16138 16065 16057 16087 16068 15993 15839 15626 15470 15272 15086 14849 14666 14550 14526 14408 14319 14137 13991 13897 13737 13606 13526 13312 13150 13019 12896 12858 12739 12542 12342 12200 12085 11999 11994 11939 11844 11736 11518 11207 10896 10768 10746 10692 10723 10656 10531 10494 10387 10317 10279 10332 10279 10276 10207 10221 10223 10256 10167 10120 10083 10215 10406 10394 10331 10404 10363 10448 10474 10422 10378 10484 10483 10394 10219 10161 10129 9928 9825 9633 9517 9416 9309 9306 9275 9181 9182 9163 9107 9196 9221 9221 9272 9254 9176 9105 9113 9104 9115 9006 8809 8839 8910 8824 8719 8777 8896 8919 8930 9084 9132 9358 9534 9502 9384 9187 9099 9110 9046 9093 9042 9168 9225 9407 9544 9760 9959 10174 10344 10328 10312 10349 10454 10616 10684 10778 10989 11045 11164 11334 11486 11468 11555 11535 11520 11635 11748 11741 11742 11781 11811 11806 11701 11607 11567 11585 11523 11632 11838 11912 11962 11911 11873 11915 11906 11740 11655 11559 11540 11435 11394 11364 11269 11321 11389 11446 11519 11475 11532 11650 11730 11733 11632 11668 11761 11694 11727 11802 11919 11964 12094 12293 12495 12601 12602 12531 12567 12785 12914 13021 13077 13147 13224 13222 13147 13335 13442 13587 13822 14053 14276 14433 14692 14885 15156 15350 15553 15610 15620 15632 15564 15607 15638 15602 15631 15624 15724 15708 15806 15823 15749 15810 15994 16019 16106 16093 16173 16317 16340 16388 16525 16694 16795 17066 17231 17372 17438 17513 17644
16710 16557 16338 16363 16340 16337 16333 16229 16155 16046 15974 15994 15988 15890 15824 15532 15354 15220 14996 14829 14676 14564 14459 14425 14254 14122 13968 13844 13815 13607 13512 13306 13050 13033 12913 12818 12674 12466 12320 12158 12031 11987 12012 11939 11865 11742 11535 11186 10943 10891 10921 10909 10817 10672 10576 10560 10385 10399 10380 10421 10465 10438 10332 10303 10380 10386 10414 10440 10382 10411 10559 10437 10372 10376 10426 10446 10429 10476 10416 10514 10549 10355 10310 10173 10051 9947 9842 9765 9575 9482 9349 9278 9206 9166 9157 9148 9197 9240 9285 9215 9270 9123 9075 9055 9094 9094 9118 9019 8877 8863 8948 8768 8743 8752 8843 8988 8996 9073 9134 9284 9407 9423 9414 9258 9144 9077 9034 9038 8974 9078 9181 9340 9422 9665 9906 10101 10221 10187 10190 10195 10272 10542 10672 10822 10874 11003 11016 11229 11431 11477 11497 11545 11620 11595 11735 11763 11715 11673 11712 11645 11605 11645 11628 11612 11559 11664 11701 11766 11859 11841 11883 11906 11872 11736 11619 11553 11501 11487 11463 11543 11458 11408 11473 11507 11525 11605 11677 11662 11703 11784 11759 11822 11776 11800 11764 11835 11862 12029 12073 12239 12444 12457 12512 12494 12555 12662 12874 13040 13178 13102 13144 13222 13138 13286 13444 13606 13751 14031 14221 14482 14625 14837 14999 15237 15514 15538 15454 15468 15540 15548 15485 15591 15696 15684 15774 15813 15862 15766 15704 15750 15894 15894 16090 16120 16138 16265 16343 16346 16487 16635 16721 16982 17103 17219 17374 17506 17734
16681 16503 16376 16281 16250 16220 16254 16149 16074 16031 15882 15869 15938 15794 15722 15466 15296 15126 14956 14782 14641 14625 14511 14367 14259 14097 14036 13922 13775 13560 13396 13290 13060 12911 12875 12768 12606 12381 12178 12075 11952 12037 12047 11911 11888 11746 11531 11260 11031 11058 10971 10959 10919 10820 10709 10546 10294 10361 10381 10503 10558 10566 10502 10502 10573 10562 10676 10654 10561 10549 10646 10563 10512 10502 10550 10516 10475 10420 10455 10477 10541 10420 10354 10181 10099 10004 9873 9758 9548 9496 9476 9358 9230 9136 9157 9234 9279 9296 9237 9207 9189 9140 9082 9048 9082 9029 9088 8934 8862 8903 8872 8791 8651 8670 8779 8960 9022 9045 9019 9081 9264 9355 9358 9354 9227 9210 9098 9029 8862 8946 9088 9210 9379 9526 9791 10004 10173 10171 10099 10073 10141 10370 10554 10737 10865 10942 10942 11103 11250 11406 11462 11580 11600 11647 11690 11722 11773 11650 11597 11514 11539 11650 11682 11645 11585 11557 11657 11733 11813 11751 11791 11888 11917 11854 11674 11632 11506 11619 11648 11652 11543 11522 11507 11459 11480 11621 11720 11723 11781 11801 11788 11854 11844 11815 11871 11939 11883 11987 12094 12164 12275 12346 12348 12415 12581 12666 12878 13080 13180 13103 13112 13142 13239 13362 13475 13566 13730 13907 14198 14442 14609 14745 14941 15217 15503 15469 15349 15370 15404 15454 15457 15623 15663 15626 15713 15742 15800 15770 15732 15714 15682 15804 15966 16076 16114 16171 16307 16384 16434 16572 16610 16835 16999 17117 17237 17484 17727
16687 16451 16359 16267 16279 16266 16208 16137 16122 16063 15995 15968 15920 15831 15704 15466 15229 15173 15021 14801 14611 14668 14524 14466 14334 14208 13997 13842 13649 13605 13477 13311 13128 13079 12940 12752 12660 12419 12204 12115 11982 11950 11962 11925 11914 11694 11471 11298 11066 11118 11104 11112 11073 10949 10841 10703 10452 10535 10510 10587 10506 10518 10582 10597 10649 10669 10775 10744 10628 10632 10657 10540 10507 10545 10670 10694 10573 10548 10411 10484 10556 10421 10382 10199 10192 10088 9902 9814 9633 9519 9439 9383 9348 9213 9251 9280 9291 9317 9260 9174 9158 9120 9057 9066 8984 8945 9072 8998 8961 8819 8822 8790 8656 8692 8742 8789 8821 8920 9015 9053 9158 9239 9288 9234 9143 9115 9128 8998 8791 8936 9083 9217 9399 9394 9554 9669 9912 9952 9914 9984 10069 10271 10438 10612 10748 10800 10929 11103 11284 11329 11441 11495 11427 11587 11600 11680 11740 11647 11566 11594 11523 11556 11581 11581 11627 11718 11725 11831 11844 11894 11874 11971 12069 11888 11808 11658 11587 11654 11634 11557 11532 11590 11553 11434 11401 11544 11575 11598 11727 11691 11773 11833 11869 11842 11883 11906 11912 12083 12120 12203 12337 12415 12503 12626 12786 12867 12866 13017 13182 13235 13292 13338 13315 13526 13621 13706 13761 13933 14151 14322 14514 14738 14949 15242 15604 15519 15391 15415 15411 15493 15497 15532 15659 15649 15642 15661 15844 15735 15769 15559 15508 15666 15768 15900 15897 16044 16172 16345 16413 16510 16569 16734 16973 17134 17356 17601 17819
16577 16426 16315 16338 16310 16286 16282 16292 16241 16175 16030 15887 15850 15696 15639 15462 15270 15210 15045 14898 14709 14662 14627 14549 14443 14322 14079 13914 13625 13540 13492 13345 13205 13108 13008 12766 12637 12451 12276 12182 11989 11862 11840 11936 11930 11700 11478 11275 11160 11145 11195 11229 11232 11107 10956 10811 10626 10584 10628 10614 10573 10622 10546 10575 10693 10788 10876 10746 10712 10686 10638 10599 10606 10712 10748 10768 10785 10613 10487 10461 10557 10367 10296 10197 10197 10009 9924 9810 9601 9429 9386 9376 9353 9314 9375 9296 9305 9301 9203 9137 9033 9073 9123 9019 8975 8931 8978 8958 8975 8848 8769 8655 8624 8673 8712 8655 8664 8810 8953 8998 9012 9015 9133 9078 9064 9084 9074 8879 8784 8853 9044 9204 9319 9340 9363 9436 9587 9578 9670 9775 9927 10047 10222 10482 10704 10817 10920 11074 11204 11231 11337 11353 11324 11447 11511 11695 11778 11742 11646 11547 11536 11544 11605 11650 11583 11742 11790 11829 11956 11953 11918 11997 12101 11988 11935 11752 11676 11609 11625 11581 11647 11534 11475 11478 11447 11541 11534 11601 11581 11625 11723 11805 11882 11865 11881 11942 12018 12089 12072 12238 12287 12387 12554 12731 12948 12941 12935 13100 13143 13243 13353 13394 13382 13621 13739 13796 13915 14119 14216 14358 14482 14771 15082 15371 15603 15540 15364 15424 15438 15479 15482 15529 15587 15602 15557 15601 15766 15729 15682 15500 15408 15546 15689 15767 15802 16018 16143 16258 16403 16463 16598 16689 16907 17128 17363 17589 17800
16652 16422 16365 16247 16174 16216 16273 16272 16231 16210 16048 16026 15853 15693 15661 15499 15360 15315 15105 14964 14811 14811 14740 14534 14388 14247 14077 13959 13665 13618 13438 13333 13174 13084 12931 12731 12617 12460 12285 12228 11996 11852 11845 11909 11889 11755 11533 11337 11220 11302 11366 11343 11277 11072 11022 10915 10772 10715 10755 10656 10639 10710 10728 10757 10934 10927 10900 10882 10951 10856 10748 10744 10768 10835 10788 10879 10830 10635 10592 10519 10557 10305 10233 10250 10240 10070 9882 9764 9694 9544 9469 9359 9274 9320 9377 9377 9368 9322 9199 9151 8991 9074 9083 8974 8883 8902 8908 8944 9014 8892 8863 8745 8606 8605 8549 8594 8641 8670 8886 8915 8869 8971 9070 9009 9113 8961 8912 8827 8788 8906 9116 9155 9311 9272 9307 9356 9414 9464 9537 9712 9851 9966 10166 10331 10547 10723 10696 10863 10995 11093 11134 11244 11297 11363 11400 11593 11627 11604 11600 11536 11554 11526 11634 11740 11750 11769 11921 11947 12028 11971 12013 12072 12208 12054 11990 11934 11801 11724 11606 11656 11596 11548 11512 11450 11391 11368 11411 11455 11557 11592 11667 11777 11794 11892 11948 12033 12109 12079 12122 12207 12331 12527 12691 12865 13016 13071 13017 13152 13185 13269 13429 13465 13446 13686 13838 13939 13961 14153 14318 14480 14543 14810 15123 15300 15608 15545 15370 15401 15448 15489 15489 15554 15467 15494 15637 15621 15681 15656 15539 15474 15326 15430 15522 15652 15728 15954 16060 16189 16434 16586 16649 16769 16864 17068 17334 17508 17746
16618 16478 16361 16217 16140 16171 16201 16119 16154 16155 16098 16086 15957 15808 15654 15552 15345 15361 15277 15197 15002 14841 14764 14635 14426 14292 14196 13967 13730 13660 13506 13374 13144 12973 12860 12676 12574 12517 12347 12197 11938 11906 11847 11839 11904 11816 11710 11562 11375 11481 11462 11351 11299 11137 11037 10884 10821 10860 10900 10767 10730 10742 10805 10891 11050 10993 11050 11033 11113 10983 10967 10970 10956 10861 10869 10937 10898 10714 10577 10563 10460 10279 10211 10204 10203 10017 9928 9775 9679 9526 9470 9419 9289 9318 9461 9365 9381 9347 9245 9150 8986 8992 8987 8986 8889 8865 8879 8938 8984 8916 8858 8732 8588 8482 8483 8545 8510 8579 8709 8785 8839 8907 9004 9025 9082 8923 8872 8889 8847 9035 9147 9162 9263 9188 9177 9186 9243 9379 9447 9536 9710 9860 10137 10344 10500 10582 10601 10800 10906 10903 11022 11126 11286 11369 11395 11487 11553 11594 11518 11475 11549 11584 11652 11701 11818 11895 12010 12120 12149 12086 12106 12165 12232 12161 12031 11941 11864 11772 11640 11630 11593 11506 11536 11432 11347 11319 11389 11448 11536 11605 11583 11656 11710 11855 11895 11999 12078 12058 12134 12228 12357 12568 12816 12885 13064 13154 13218 13300 13324 13433 13468 13491 13458 13623 13839 13943 14004 14142 14409 14528 14583 14879 15174 15354 15520 15436 15413 15352 15401 15511 15518 15490 15415 15514 15592 15522 15574 15490 15478 15394 15239 15310 15463 15554 15583 15878 16081 16199 16375 16554 16651 16700 16804 17077 17394 17553 17733
16504 16365 16374 16315 16188 16124 16119 16090 16098 16096 16011 15995 15889 15759 15633 15560 15458 15297 15200 15025 14860 14869 14814 14590 14442 14346 14253 14097 13884 13780 13589 13349 13161 13007 12941 12786 12615 12507 12388 12148 11917 11916 11837 11883 11887 11774 11675 11497 11278 11340 11387 11360 11241 11082 10994 10864 10724 10738 10783 10760 10713 10676 10837 10964 11097 11096 11117 11149 11123 11040 11013 10988 10962 10866 10827 10854 10795 10715 10524 10567 10546 10360 10298 10294 10243 9995 9849 9706 9569 9448 9418 9317 9275 9382 9470 9419 9405 9369 9269 9204 9058 9009 9031 9041 8960 8921 9017 9080 9036 8948 8797 8643 8532 8569 8600 8680 8619 8631 8742 8819 8838 8861 8842 8799 8915 8799 8695 8695 8695 8801 8906 8934 9053 8995 9041 8995 9051 9294 9424 9551 9644 9832 10020 10262 10473 10452 10512 10633 10778 10831 10930 11061 11117 11238 11243 11388 11570 11543 11591 11616 11641 11718 11660 11666 11797 11849 11979 12007 12097 12115 12082 12150 12201 12094 11978 11996 11888 11732 11695 11622 11605 11605 11615 11588 11579 11497 11466 11611 11647 11658 11744 11830 11868 11907 11952 12090 12271 12244 12342 12407 12502 12691 12932 13026 13168 13245 13351 13364 13362 13429 13481 13506 13595 13699 13784 13888 13983 14178 14405 14534 14574 14798 15081 15204 15392 15297 15310 15313 15293 15341 15379 15322 15332 15321 15368 15384 15399 15336 15296 15225 15117 15249 15354 15478 15493 15693 16000 16137 16292 16493 16575 16690 16773 16998 17379 17420 17639
16426 16350 16362 16245 16191 16097 15974 15929 15925 15884 15924 15926 15888 15793 15676 15619 15469 15339 15240 14968 14779 14814 14739 14581 14538 14316 14197 14078 14013 13842 13680 13517 13306 13161 12972 12835 12594 12511 12320 12169 12004 11934 11762 11841 11871 11814 11664 11490 11220 11178 11264 11212 11163 11168 11047 10840 10738 10724 10727 10692 10615 10670 10762 10992 11163 11186 11233 11224 11138 11161 11171 11006 10910 10829 10773 10760 10734 10706 10589 10512 10518 10472 10496 10375 10335 10118 9857 9714 9460 9508 9454 9340 9311 9449 9468 9345 9313 9306 9175 9152 9076 9089 9144 9096 9121 9046 9073 9079 9091 8875 8775 8662 8562 8595 8613 8732 8837 8750 8778 8883 8878 8738 8653 8621 8714 8685 8578 8489 8423 8592 8772 8785 8827 8881 8957 8930 8972 9120 9282 9387 9581 9778 9929 10162 10331 10418 10511 10539 10563 10626 10713 10948 11059 11193 11218 11403 11565 11661 11743 11744 11847 11793 11707 11650 11702 11823 11855 11967 12094 12037 12074 12133 12178 12100 11993 11953 11794 11742 11635 11680 11704 11637 11600 11628 11720 11692 11582 11638 11785 11822 11927 11930 11970 12043 12018 12137 12342 12408 12520 12639 12719 12835 12944 13037 13167 13290 13366 13416 13370 13417 13421 13490 13616 13695 13780 13893 14027 14203 14354 14560 14670 14765 14900 15117 15246 15247 15130 15154 15107 15160 15129 15096 15138 15196 15224 15205 15142 15175 15148 15058 15020 15066 15160 15305 15361 15616 15850 16085 16207 16476 16619 16664 16710 17009 17279 17346 17512
16301 16246 16287 16224 16174 15995 15909 15817 15754 15755 15754 15809 15789 15652 15627 15509 15354 15229 15107 14935 14784 14833 14796 14687 14623 14346 14213 14168 14062 13796 13713 13422 13262 13169 12922 12762 12445 12413 12277 12170 12080 11901 11740 11791 11707 11686 11586 11356 11244 11265 11210 11225 11182 11129 10933 10817 10743 10705 10732 10710 10636 10759 10851 10925 11043 11067 11210 11213 11180 11216 11192 11005 10927 10844 10856 10817 10772 10649 10673 10675 10649 10611 10542 10399 10364 10094 9971 9768 9464 9482 9400 9308 9321 9434 9402 9343 9343 9347 9224 9213 9094 9140 9221 9245 9209 9202 9241 9173 9172 9015 8836 8786 8619 8758 8821 8891 8858 8785 8828 8822 8808 8639 8581 8568 8489 8396 8371 8291 8299 8379 8426 8449 8488 8646 8672 8733 8878 9034 9186 9310 9486 9684 9745 10044 10221 10297 10348 10431 10458 10623 10614 10762 10980 11044 11162 11353 11446 11486 11685 11747 11860 11784 11757 11688 11786 11776 11933 11911 12037 12048 11967 12077 12195 12077 12031 11931 11812 11695 11676 11616 11665 11621 11563 11736 11860 11726 11765 11777 11751 11812 11976 11948 11948 12030 12079 12240 12376 12471 12636 12796 12837 12910 13040 13166 13216 13262 13361 13402 13411 13459 13424 13468 13601 13714 13851 13966 14064 14202 14407 14586 14665 14775 14943 15013 15087 15142 15028 15066 15015 14972 15001 15021 14936 14985 15000 14996 14941 14970 14873 14887 14782 14919 15145 15237 15388 15658 15882 16060 16200 16425 16530 16703 16739 16961 17174 17216 17410
16186 16138 16097 16071 16094 15922 15861 15795 15699 15660 15695 15692 15607 15552 15457 15389 15346 15120 15018 14951 14811 14767 14782 14698 14596 14417 14277 14105 14055 13793 13652 13416 13302 13091 12885 12620 12404 12320 12114 12126 12051 11928 11816 11677 11653 11514 11388 11329 11238 11192 11100 11130 11154 11016 10913 10796 10660 10675 10788 10720 10670 10819 10946 10928 11026 11068 11183 11144 11183 11210 11202 11090 11041 10930 10891 10811 10740 10665 10686 10694 10657 10564 10525 10469 10293 10160 10013 9763 9485 9395 9357 9430 9393 9426 9454 9436 9433 9357 9397 9313 9155 9269 9393 9351 9426 9369 9310 9308 9242 9165 8973 8909 8780 8824 8951 9004 8933 8843 8840 8756 8717 8638 8510 8442 8376 8275 8257 8253 8210 8213 8187 8243 8245 8409 8498 8538 8683 8889 9102 9171 9282 9531 9671 9885 10033 10204 10253 10376 10450 10558 10623 10690 10832 10914 11090 11261 11328 11376 11551 11784 11944 11858 11809 11813 11830 11817 11894 11894 12006 12031 11988 12079 12169 12098 11996 11941 11796 11713 11733 11623 11629 11672 11652 11798 11914 11821 11853 11779 11798 11863 11957 11991 12027 12159 12247 12341 12411 12563 12730 12917 12996 13143 13213 13201 13181 13303 13363 13447 13458 13391 13394 13495 13558 13744 13936 14119 14200 14296 14483 14685 14767 14823 14897 14910 14981 14966 14853 14831 14889 14877 14960 14915 14839 14736 14727 14684 14719 14639 14683 14715 14630 14808 15113 15250 15357 15621 15903 16108 16224 16389 16526 16672 16788 16883 17034 17187 17223
16065 16056 16038 15983 16056 15918 15736 15592 15508 15484 15495 15434 15378 15386 15360 15258 15262 15084 15030 14940 14749 14689 14666 14592 14538 14383 14221 14049 13976 13798 13637 13360 13215 12939 12806 12581 12299 12251 12130 12089 12105 11947 11796 11643 11596 11441 11305 11353 11247 11236 11192 11182 11197 11041 10952 10822 10760 10849 10902 10818 10680 10900 11021 11008 11169 11226 11246 11243 11228 11168 11229 11149 11156 10980 10870 10759 10691 10654 10762 10721 10570 10573 10466 10284 10176 10025 9842 9596 9402 9411 9354 9333 9302 9432 9402 9377 9456 9345 9372 9318 9214 9213 9324 9318 9448 9447 9365 9391 9292 9192 9171 9009 8919 8983 8950 8867 8830 8735 8693 8647 8543 8456 8387 8351 8247 8108 8115 8028 7909 8056 8096 8051 8179 8288 8278 8375 8473 8624 8879 8979 9132 9364 9487 9590 9744 9920 9973 10181 10283 10378 10460 10607 10775 10950 11060 11191 11424 11552 11678 11885 12032 11866 11793 11745 11853 11755 11814 11906 11892 11908 11946 11941 12016 12022 11869 11818 11744 11734 11774 11737 11689 11779 11735 11823 11899 11861 11977 11831 11839 11950 12070 12126 12175 12201 12377 12395 12526 12769 13002 13108 13217 13317 13358 13365 13278 13444 13482 13493 13569 13490 13564 13622 13687 13846 14071 14128 14191 14370 14565 14700 14720 14696 14780 14767 14779 14747 14677 14673 14722 14812 14867 14681 14623 14622 14578 14542 14557 14559 14605 14623 14665 14850 15028 15210 15477 15601 15862 15968 16164 16331 16491 16549 16752 16825 16900 17015 17079
16048 16013 15989 15965 15910 15781 15606 15579 15438 15409 15293 15251 15224 15284 15248 15261 15157 15108 15099 14972 14795 14752 14587 14503 14477 14352 14195 14049 13801 13729 13575 13383 13104 12898 12630 12506 12284 12239 12208 12089 12090 11939 11689 11630 11616 11511 11342 11332 11377 11314 11280 11209 11126 11022 11030 10942 10852 10931 10928 10830 10754 10899 11077 11118 11239 11228 11242 11184 11217 11244 11215 11250 11307 11122 10897 10756 10677 10699 10788 10751 10605 10536 10416 10262 10106 9855 9705 9577 9419 9335 9301 9334 9321 9350 9319 9322 9365 9366 9258 9250 9327 9299 9342 9400 9400 9438 9501 9400 9356 9364 9279 9124 9028 9018 9014 8890 8850 8743 8646 8530 8447 8341 8215 8094 8084 7968 7980 7899 7729 7773 7903 7893 7989 8099 8112 8228 8328 8462 8706 8745 8856 9097 9236 9350 9538 9670 9779 9991 10175 10278 10353 10511 10723 10880 11115 11226 11420 11615 11780 11982 12065 12009 11828 11772 11836 11775 11809 11850 11883 11906 11961 11971 11991 11899 11764 11741 11783 11788 11810 11730 11626 11829 11922 11887 11957 11981 11992 11963 12008 12129 12162 12204 12246 12339 12556 12584 12725 12918 13170 13333 13510 13495 13601 13562 13422 13504 13621 13570 13621 13650 13748 13758 13718 13939 14169 14161 14241 14454 14642 14612 14622 14622 14683 14717 14679 14612 14606 14603 14598 14571 14652 14542 14484 14441 14414 14404 14426 14482 14599 14565 14577 14776 14917 15157 15485 15587 15754 15961 16120 16244 16374 16524 16732 16732 16832 16979 17036
16070 16027 16011 15962 15950 15761 15608 15517 15382 15270 15191 15205 15077 15115 15157 15201 15133 15064 15008 14891 14844 14739 14601 14564 14446 14258 14172 14006 13748 13622 13490 13253 13016 12814 12711 12515 12299 12184 12112 12066 12038 11832 11601 11642 11615 11532 11472 11396 11322 11327 11283 11226 11015 11019 10940 10969 10866 10960 10969 10926 10914 11006 11127 11140 11242 11236 11120 11163 11237 11172 11234 11248 11310 11154 10910 10763 10656 10705 10779 10741 10603 10437 10267 10246 10088 9949 9754 9532 9462 9471 9428 9435 9313 9363 9323 9342 9265 9352 9316 9325 9430 9350 9386 9439 9478 9482 9506 9410 9368 9379 9342 9235 9098 9035 9017 8884 8921 8799 8630 8448 8366 8350 8315 8155 8065 7921 7794 7741 7544 7581 7712 7713 7744 7825 7920 8062 8218 8285 8508 8592 8634 8850 9053 9191 9374 9473 9684 9845 10074 10203 10278 10491 10727 10827 11019 11158 11460 11618 11771 11900 12037 11990 11896 11840 11928 11849 11827 11841 11885 11948 11924 11889 11880 11839 11723 11672 11727 11744 11673 11684 11668 11912 12037 12051 12115 12063 12024 12006 12065 12150 12239 12362 12479 12637 12725 12886 12949 13156 13366 13538 13624 13663 13744 13660 13626 13692 13760 13730 13840 13767 13870 13891 13880 13999 14194 14277 14363 14538 14691 14645 14654 14606 14637 14567 14485 14529 14513 14403 14294 14335 14395 14316 14211 14234 14322 14301 14331 14391 14454 14471 14525 14688 14853 15078 15374 15541 15698 15817 15987 16115 16329 16474 16765 16796 16853 17034 17077
15985 15963 15925 15908 15893 15763 15606 15486 15389 15315 15207 15083 14990 15028 15141 15131 15048 15021 14934 14884 14812 14739 14603 14545 14512 14263 14126 13900 13802 13482 13282 13117 12975 12826 12711 12437 12284 12091 12008 11927 11923 11723 11636 11610 11594 11542 11479 11405 11367 11337 11288 11154 11029 10960 10979 10921 10849 10929 11036 11017 11037 11024 11089 11088 11202 11118 11101 11190 11156 11188 11220 11275 11375 11143 11005 10818 10733 10704 10694 10682 10555 10380 10163 10134 10021 9904 9709 9574 9427 9445 9535 9545 9433 9383 9385 9326 9274 9388 9414 9495 9540 9499 9389 9425 9494 9507 9588 9565 9497 9441 9364 9312 9206 9110 8970 8951 8988 8884 8687 8518 8393 8347 8289 8207 8030 7878 7708 7567 7381 7465 7474 7494 7624 7758 7799 7903 7996 8132 8218 8363 8439 8683 8885 8961 9144 9404 9539 9769 10097 10266 10320 10569 10726 10809 10941 11165 11395 11520 11765 11995 12124 12089 12026 11955 11894 11890 11944 11948 11977 11863 11791 11774 11712 11716 11715 11721 11603 11600 11601 11683 11705 11953 12083 12189 12244 12220 12163 12155 12249 12285 12368 12528 12619 12787 13017 13184 13283 13341 13456 13604 13792 13784 13768 13772 13879 13873 13840 13902 13969 13928 13972 13945 13999 14123 14280 14356 14527 14604 14724 14712 14674 14555 14483 14345 14333 14360 14315 14237 14113 14116 14133 14082 14048 14104 14244 14334 14298 14353 14433 14426 14522 14645 14868 15113 15359 15487 15714 15824 15873 16130 16327 16516 16693 16745 16870 16985 17045
15907 15818 15746 15739 15661 15537 15507 15361 15257 15173 15114 14925 14803 14840 14910 14885 14744 14854 14853 14746 14718 14529 14445 14304 14291 14128 13944 13851 13689 13513 13273 13182 12985 12819 12673 12339 12186 12020 11983 11999 11902 11766 11578 11575 11590 11473 11385 11307 11314 11330 11303 11206 11158 10984 10979 10933 10962 10987 10982 11109 11091 11142 11127 11084 11172 11176 11136 11097 11164 11047 11072 11138 11255 11045 10870 10839 10747 10641 10522 10567 10537 10335 10124 9987 9792 9691 9645 9518 9331 9469 9514 9447 9461 9396 9254 9204 9151 9220 9284 9282 9350 9369 9346 9328 9454 9484 9408 9505 9553 9420 9346 9300 9190 9114 9096 9024 8953 8787 8655 8477 8401 8323 8282 8221 8066 7885 7688 7493 7419 7445 7545 7563 7624 7749 7819 7968 8035 8196 8260 8332 8488 8735 8990 9128 9201 9433 9496 9721 10077 10178 10306 10488 10699 10861 10885 11104 11364 11432 11692 11844 12101 11982 12027 11933 11825 11779 11744 11812 11804 11742 11677 11733 11628 11648 11815 11845 11806 11703 11659 11774 11791 11952 12078 12133 12147 12182 12253 12205 12170 12257 12272 12355 12521 12732 13017 13149 13192 13270 13447 13527 13748 13645 13708 13764 13820 13794 13893 13841 13831 13857 13887 13943 13922 14085 14253 14271 14373 14493 14584 14615 14491 14540 14527 14437 14284 14256 14178 14135 13997 14055 14060 13980 13936 14006 14112 14100 14145 14185 14274 14350 14298 14482 14642 14885 15220 15408 15629 15709 15826 16017 16245 16383 16539 16678 16878 16927 16973
15904 15759 15600 15543 15554 15459 15425 15256 15073 15023 15017 14840 14733 14757 14727 14647 14566 14668 14677 14600 14518 14343 14162 14158 14116 13944 13738 13756 13698 13508 13245 13182 13021 12758 12544 12306 12065 12073 11973 11942 11906 11761 11621 11628 11587 11481 11318 11253 11195 11280 11322 11258 11200 11084 11051 10974 11015 11020 10977 11119 11137 11197 11171 11175 11171 11125 11148 11052 11076 10990 11008 11044 11103 10938 10862 10804 10745 10622 10453 10484 10402 10314 10156 9882 9662 9509 9483 9309 9224 9357 9464 9437 9479 9352 9147 9055 8958 9058 9234 9242 9183 9205 9215 9295 9356 9336 9292 9340 9505 9402 9272 9302 9264 9149 9103 9067 8960 8900 8728 8524 8304 8332 8305 8089 8002 7799 7584 7523 7389 7566 7663 7650 7684 7774 7827 7968 8078 8206 8329 8430 8644 8774 9019 9159 9311 9391 9552 9759 9955 10196 10354 10550 10780 10863 10891 11056 11230 11365 11600 11749 11999 11935 11951 11775 11728 11659 11659 11645 11649 11590 11598 11635 11551 11683 11805 11901 11892 11820 11744 11806 11787 11933 11972 12103 12126 12206 12218 12244 12162 12222 12222 12322 12531 12694 12900 13046 13209 13222 13357 13550 13664 13593 13610 13628 13736 13779 13874 13860 13724 13799 13802 13805 13775 13943 14218 14301 14337 14401 14472 14497 14414 14400 14453 14367 14261 14157 14027 13934 13846 13884 14013 13966 13925 14034 14094 14061 14097 14100 14211 14218 14170 14283 14518 14820 15086 15258 15457 15659 15802 15947 16207 16291 16404 16624 16770 16955 17029
15813 15611 15408 15446 15432 15323 15269 15125 15036 15008 15034 14838 14744 14620 14556 14495 14361 14343 14393 14345 14366 14113 13954 13824 13867 13787 13642 13646 13537 13396 13184 13054 12917 12669 12491 12184 11960 11975 11862 11864 11801 11747 11633 11572 11557 11475 11383 11253 11148 11236 11349 11365 11296 11202 11211 11175 11231 11105 11108 11064 11030 11035 11107 11008 11051 11012 11037 11050 11036 10959 11017 10962 11059 10955 10894 10781 10782 10637 10500 10459 10384 10251 10152 9813 9562 9437 9415 9263 9261 9325 9349 9311 9328 9231 9143 9025 8895 8991 9172 9129 9138 9081 9121 9193 9265 9304 9300 9339 9370 9249 9224 9210 9224 9123 9066 8955 8916 8817 8640 8548 8357 8310 8321 8102 7883 7737 7570 7505 7407 7492 7638 7628 7694 7823 7863 8016 8025 8165 8364 8442 8678 8921 9172 9236 9438 9519 9700 9801 9935 10161 10248 10482 10722 10827 10932 11135 11279 11443 11572 11782 12050 12035 11954 11872 11763 11699 11642 11599 11567 11597 11570 11592 11551 11741 11836 11848 11940 11881 11757 11686 11670 11832 11875 11999 12093 12093 12147 12217 12147 12256 12215 12340 12540 12595 12739 12951 13139 13181 13358 13411 13568 13615 13602 13583 13633 13680 13849 13711 13583 13632 13610 13614 13716 13856 14121 14214 14326 14388 14373 14425 14328 14328 14292 14245 14250 14126 13982 13895 13814 13775 13799 13798 13789 13849 13809 13921 14024 14017 14071 14130 14085 14218 14447 14630 14926 15178 15282 15534 15766 15882 16161 16268 16320 16538 16588 16797 16899
15613 15460 15339 15338 15286 15257 15141 15036 14936 14968 14926 14816 14684 14485 14411 14343 14220 14154 14198 14162 14098 13895 13703 13571 13501 13447 13441 13439 13370 13275 13069 13013 12832 12586 12440 12190 11884 11869 11794 11756 11640 11700 11641 11560 11584 11561 11462 11280 11090 11252 11304 11379 11330 11334 11465 11390 11346 11258 11163 11095 11006 11010 10917 10853 10888 10932 10939 10983 11085 11036 10938 10917 10982 10883 10861 10812 10748 10575 10434 10385 10297 10217 10055 9775 9559 9442 9365 9307 9218 9233 9312 9254 9272 9174 9042 8898 8870 8965 9032 8983 8999 9047 9098 9084 9132 9199 9222 9327 9337 9247 9235 9182 9238 9208 9095 8995 8956 8789 8640 8479 8398 8279 8234 8047 7822 7761 7600 7442 7409 7487 7633 7610 7686 7847 7979 8071 8064 8299 8442 8554 8679 8976 9229 9412 9660 9778 9867 9882 9962 10055 10185 10373 10596 10820 11002 11151 11283 11457 11646 11820 12082 11983 11930 11820 11698 11677 11686 11583 11546 11519 11422 11468 11537 11734 11867 11959 11964 11886 11719 11733 11647 11752 11877 11872 11937 11997 12048 12087 12242 12328 12301 12344 12457 12605 12629 12777 12983 13073 13274 13404 13572 13614 13643 13656 13615 13703 13718 13665 13568 13574 13524 13578 13628 13853 13984 14120 14256 14253 14193 14280 14244 14187 14225 14251 14233 14091 14004 13882 13816 13690 13660 13588 13588 13621 13605 13675 13840 13899 13873 13932 14001 14179 14273 14537 14783 15034 15206 15501 15711 15868 16107 16184 16301 16374 16460 16660 16784
15560 15483 15292 15253 15223 15160 15030 14938 14820 14780 14777 14582 14464 14373 14293 14130 13950 13935 14024 13869 13883 13669 13453 13460 13404 13251 13259 13237 13222 13069 12909 12746 12622 12477 12313 11991 11759 11690 11650 11582 11403 11559 11604 11569 11466 11355 11328 11134 11083 11123 11208 11278 11406 11353 11472 11372 11361 11337 11193 11176 11130 10988 11011 10992 10934 11012 11021 11063 11065 10937 10876 10864 10925 10933 10836 10764 10665 10392 10272 10253 10166 10046 9971 9750 9569 9536 9438 9385 9317 9282 9253 9184 9207 8990 8883 8817 8796 8879 8874 8916 8814 8935 8965 8908 8977 9056 9108 9178 9171 9133 9127 9096 9187 9136 9054 8902 8830 8727 8627 8623 8557 8355 8173 8037 7813 7785 7604 7495 7447 7428 7587 7569 7566 7675 7877 8054 8088 8249 8529 8704 8862 9047 9316 9467 9647 9742 9942 9961 10023 10073 10168 10375 10494 10642 10818 10995 11175 11366 11509 11704 11946 11909 11886 11761 11589 11532 11632 11567 11461 11489 11403 11500 11515 11718 11763 11894 12015 11956 11819 11803 11752 11741 11848 11890 11923 11899 11990 12113 12209 12197 12364 12340 12400 12597 12748 12802 12993 13101 13177 13333 13566 13555 13581 13518 13547 13637 13668 13603 13595 13594 13579 13583 13667 13798 13878 14057 14166 14126 14065 14113 14041 14100 14018 14024 14060 13926 13841 13810 13711 13646 13662 13498 13538 13626 13615 13708 13815 13811 13782 13841 13985 14194 14369 14537 14834 14957 15216 15365 15560 15716 15987 16108 16211 16362 16475 16524 16656
15536 15380 15292 15140 15060 14971 14796 14770 14699 14706 14609 14464 14352 14196 14102 13965 13744 13760 13751 13631 13607 13366 13238 13249 13183 13105 13154 13008 12951 12821 12776 12615 12497 12276 12184 11876 11558 11484 11387 11369 11238 11287 11443 11407 11274 11239 11206 11104 11001 11052 11163 11313 11402 11406 11407 11385 11344 11289 11215 11236 11148 11026 11016 10937 10897 10992 11052 10990 10972 10938 10840 10838 10925 10848 10727 10605 10496 10299 10071 9993 9952 9816 9783 9674 9481 9492 9405 9401 9293 9273 9264 9260 9196 8920 8770 8706 8671 8751 8804 8758 8691 8689 8790 8822 8924 8899 8983 9018 9024 9102 9060 9035 9053 8994 8948 8839 8700 8659 8710 8628 8607 8405 8167 8041 7886 7747 7493 7432 7362 7416 7539 7486 7473 7669 7771 8011 8223 8323 8541 8687 8942 9064 9305 9461 9683 9825 9919 9983 10015 10118 10204 10332 10426 10578 10704 10919 11095 11271 11376 11641 11897 11849 11796 11730 11546 11462 11461 11382 11424 11403 11417 11543 11546 11634 11677 11815 12042 11983 11826 11787 11767 11863 11889 11873 11927 11935 11952 12033 12050 12129 12329 12382 12399 12564 12756 12914 12948 13098 13157 13297 13508 13539 13464 13507 13480 13602 13715 13719 13638 13614 13597 13680 13663 13744 13824 13948 14066 13990 13876 13909 13966 14003 13930 13889 13861 13746 13734 13719 13709 13591 13564 13441 13403 13486 13670 13750 13807 13804 13813 13827 13879 14066 14355 14540 14796 14915 15163 15285 15502 15627 15753 16016 16169 16284 16451 16553 16617
15538 15309 15228 15055 14981 14866 14761 14753 14633 14544 14552 14381 14263 14041 13911 13804 13602 13523 13431 13320 13246 13096 13109 13059 12984 12962 12883 12769 12645 12574 12521 12367 12301 12230 12098 11750 11458 11378 11273 11250 11224 11245 11217 11248 11276 11141 11104 11012 10975 11045 11129 11256 11420 11430 11376 11315 11378 11332 11282 11263 11144 11058 11036 11010 10994 11062 11107 10985 10949 10864 10731 10750 10732 10667 10564 10477 10332 10104 9976 9891 9907 9750 9585 9523 9384 9333 9375 9238 9261 9258 9121 9183 9132 8942 8739 8624 8594 8619 8554 8491 8537 8549 8675 8721 8755 8623 8693 8691 8813 8770 8784 8858 8911 8811 8763 8690 8601 8640 8708 8637 8578 8446 8210 8118 7972 7718 7422 7298 7170 7266 7405 7473 7499 7643 7768 8077 8320 8512 8684 8860 8952 9124 9292 9439 9717 9859 9959 10070 10046 10176 10239 10261 10309 10494 10572 10733 11003 11250 11405 11645 11839 11701 11680 11658 11598 11512 11372 11422 11388 11393 11401 11565 11594 11619 11647 11897 12094 11912 11761 11814 11749 11861 11916 11989 12038 12048 12023 12032 12135 12197 12348 12451 12424 12507 12682 12849 12907 13029 13200 13284 13442 13478 13489 13475 13500 13541 13587 13654 13606 13621 13721 13673 13683 13762 13710 13919 13969 13885 13768 13835 13780 13857 13831 13794 13776 13753 13699 13753 13794 13725 13644 13479 13348 13448 13671 13648 13716 13690 13744 13884 13862 14077 14341 14523 14697 14932 15064 15208 15386 15600 15749 15924 16081 16242 16412 16419 16427
15473 15300 15221 15060 14888 14726 14625 14630 14583 14522 14403 14294 14081 13929 13845 13696 13467 13313 13163 13086 12932 12918 12907 12856 12899 12710 12608 12534 12417 12385 12288 12260 12197 12016 11925 11729 11434 11304 11171 11171 11085 11130 11111 11109 11170 11027 10969 10911 10872 10966 11098 11180 11381 11357 11310 11380 11382 11264 11257 11232 11188 11148 11109 11016 11051 11033 11079 11032 10943 10783 10670 10675 10646 10497 10380 10232 10106 10044 9878 9863 9823 9686 9450 9290 9227 9189 9274 9171 9119 9129 9041 9036 9001 8852 8678 8656 8591 8439 8353 8304 8352 8405 8462 8534 8488 8387 8405 8479 8487 8513 8515 8609 8792 8660 8643 8674 8584 8652 8602 8600 8661 8496 8264 8187 7988 7760 7478 7342 7093 7227 7326 7409 7495 7637 7817 8061 8386 8562 8722 8878 8986 9164 9301 9459 9677 9847 10018 10146 10178 10158 10247 10222 10208 10284 10483 10688 10887 11153 11360 11532 11687 11682 11622 11588 11535 11398 11283 11294 11273 11371 11448 11598 11688 11664 11737 11837 12039 11980 11806 11865 11809 11897 11941 11976 12037 12028 12019 12117 12103 12179 12367 12514 12572 12570 12676 12784 12910 13000 13191 13292 13412 13417 13448 13486 13550 13555 13527 13591 13600 13688 13731 13742 13705 13752 13722 13831 13827 13715 13696 13664 13666 13696 13662 13725 13744 13788 13793 13837 13760 13725 13641 13559 13410 13484 13619 13703 13746 13746 13730 13875 13905 14149 14366 14491 14582 14817 14953 15201 15369 15560 15639 15911 16081 16160 16301 16371 16366
15472 15228 15153 14957 14859 14670 14565 14413 14382 14261 14171 14028 13887 13809 13650 13479 13334 13194 13142 12973 12871 12952 12907 12859 12839 12713 12554 12455 12370 12402 12328 12278 12189 11964 11873 11748 11484 11376 11235 11225 11170 11143 10986 10995 11030 10966 10848 10732 10716 10839 11020 11098 11278 11300 11272 11361 11368 11280 11369 11345 11278 11159 11112 10963 10913 10952 10940 10822 10819 10678 10538 10549 10495 10376 10284 10183 10067 9975 9890 9943 9851 9683 9428 9243 9103 9188 9192 9098 9048 9116 9054 9068 8971 8807 8673 8646 8587 8516 8524 8440 8509 8538 8589 8674 8623 8456 8449 8455 8537 8523 8618 8672 8792 8739 8682 8621 8553 8574 8610 8565 8599 8479 8262 8178 7956 7817 7603 7400 7197 7298 7410 7417 7476 7716 7867 8102 8420 8595 8645 8801 8944 9111 9342 9529 9621 9814 9991 10051 10079 10138 10116 10107 10125 10194 10434 10682 10770 11074 11280 11483 11681 11723 11659 11532 11470 11423 11372 11329 11349 11418 11406 11544 11629 11705 11681 11857 12103 11975 11944 11928 11879 11987 11990 11945 12019 12011 12062 12080 12135 12189 12318 12437 12464 12486 12664 12802 12901 12987 13064 13203 13268 13378 13411 13408 13437 13427 13428 13446 13444 13527 13618 13630 13612 13546 13565 13637 13655 13563 13478 13546 13555 13488 13538 13461 13510 13543 13597 13613 13599 13589 13581 13554 13400 13399 13505 13561 13635 13618 13632 13734 13728 14034 14283 14349 14555 14699 14855 15041 15344 15548 15614 15765 15929 16053 16132 16230 16341
15373 15193 15036 14963 14833 14658 14425 14256 14214 14131 13956 13879 13817 13707 13566 13451 13252 13091 13017 13030 12927 12879 12942 12897 12831 12619 12534 12501 12393 12349 12348 12250 12106 11917 11831 11709 11528 11479 11421 11228 11141 11055 10937 11019 10980 10876 10676 10672 10689 10778 10905 11004 11189 11225 11347 11274 11258 11311 11374 11356 11346 11263 11128 11007 10861 10841 10795 10698 10605 10486 10444 10356 10380 10368 10253 10078 10006 9957 9915 9967 9955 9676 9512 9271 9096 9133 9188 9098 8982 9054 9022 9009 8920 8808 8639 8626 8514 8531 8595 8583 8626 8612 8712 8715 8639 8540 8477 8510 8522 8550 8604 8656 8689 8654 8711 8698 8580 8540 8523 8482 8567 8425 8305 8155 7946 7850 7669 7526 7288 7366 7451 7452 7410 7758 8018 8189 8357 8568 8690 8817 8942 9090 9277 9523 9667 9770 9958 9969 10106 10084 10113 10112 9985 10161 10410 10598 10757 10967 11270 11488 11652 11666 11589 11525 11480 11466 11530 11475 11373 11388 11413 11454 11617 11730 11743 11888 12113 12096 12089 12083 11961 11938 12024 11937 11951 12042 12196 12253 12257 12250 12330 12284 12349 12447 12644 12758 12942 12946 12948 13044 13178 13306 13369 13365 13271 13292 13374 13336 13355 13370 13393 13460 13455 13470 13535 13420 13412 13443 13364 13437 13403 13332 13342 13302 13286 13364 13372 13406 13343 13449 13452 13434 13377 13370 13358 13424 13434 13532 13632 13669 13664 13922 14165 14270 14432 14656 14806 14999 15246 15453 15568 15599 15754 15824 15938 16072 16239
15294 15081 14996 14879 14749 14615 14502 14301 14169 14111 13981 13777 13677 13537 13432 13339 13136 13061 12957 12965 12848 12793 12808 12696 12750 12552 12516 12480 12378 12345 12226 12157 11961 11789 11748 11667 11495 11432 11447 11282 11080 11084 11002 10985 10913 10763 10656 10580 10569 10678 10822 11020 11129 11193 11276 11321 11318 11341 11274 11309 11369 11208 11122 10996 10813 10770 10595 10527 10470 10482 10370 10311 10285 10192 10129 10049 9954 9955 9886 9930 9980 9712 9431 9269 9142 9124 9173 9036 8953 8959 8892 8821 8736 8727 8580 8552 8477 8477 8590 8580 8622 8604 8733 8703 8582 8537 8510 8435 8454 8581 8554 8628 8743 8719 8710 8754 8614 8665 8548 8627 8597 8524 8331 8260 8049 7885 7674 7559 7356 7342 7380 7470 7454 7757 7993 8139 8371 8479 8572 8736 8973 9162 9281 9501 9689 9783 9851 9826 9917 9902 9933 9970 9910 10176 10365 10552 10825 10945 11171 11429 11571 11523 11587 11612 11552 11493 11557 11401 11372 11478 11592 11616 11611 11795 11860 11933 12126 12146 12101 12024 11998 11922 12022 11955 11974 12040 12125 12173 12281 12200 12266 12291 12362 12480 12679 12790 12927 12916 12899 13005 13200 13258 13215 13159 13132 13127 13103 13130 13118 13207 13179 13234 13156 13313 13357 13297 13196 13228 13236 13161 13172 13176 13157 13146 13139 13129 13185 13197 13207 13271 13276 13305 13284 13195 13243 13258 13259 13321 13483 13561 13498 13754 13999 14106 14345 14636 14840 14986 15160 15375 15394 15565 15656 15785 15865 15913 16115
15212 15100 15016 14919 14750 14660 14520 14349 14059 13936 13882 13798 13638 13444 13261 13140 13064 13004 12972 12835 12673 12741 12710 12570 12555 12491 12440 12500 12443 12329 12195 11974 11832 11778 11609 11540 11460 11395 11354 11187 11020 11039 10976 10894 10887 10759 10581 10505 10527 10660 10788 11010 11172 11250 11301 11238 11299 11328 11282 11312 11303 11203 11139 11025 10820 10620 10485 10486 10403 10368 10380 10267 10183 10106 9939 9911 9801 9895 9902 9932 9910 9731 9472 9378 9183 9203 9192 9153 8998 8893 8767 8731 8627 8622 8600 8537 8454 8552 8580 8647 8694 8644 8640 8601 8583 8515 8452 8463 8474 8532 8588 8595 8686 8718 8774 8774 8769 8725 8681 8744 8723 8647 8455 8262 8095 7853 7714 7538 7458 7380 7411 7465 7570 7770 8009 8169 8287 8469 8527 8777 8956 9097 9247 9379 9610 9690 9811 9816 9813 9740 9704 9810 9809 10039 10259 10587 10831 10925 11129 11344 11437 11485 11609 11599 11621 11536 11502 11449 11445 11573 11673 11633 11659 11764 11993 12016 12164 12100 12122 12082 12026 11908 11909 11939 11938 12023 12104 12142 12233 12228 12268 12261 12252 12444 12597 12754 12802 12859 12931 13064 13142 13141 13122 12945 12894 12883 12842 12814 12914 12920 12931 13005 12977 13072 13089 13150 13085 13057 13123 13001 12957 12898 12959 13046 13060 13048 13020 13064 13155 13117 13184 13196 13132 13124 13020 13149 13153 13192 13333 13354 13461 13718 13861 14047 14333 14622 14845 14971 15147 15268 15267 15431 15514 15606 15739 15840 15893
15171 14975 14895 14777 14711 14552 14319 14124 13959 13864 13729 13638 13444 13257 13099 13051 12942 12872 12765 12628 12543 12582 12536 12391 12396 12456 12442 12379 12377 12314 12116 11905 11784 11650 11573 11520 11392 11280 11237 11080 10986 10865 10832 10716 10710 10665 10582 10558 10494 10600 10758 10985 11161 11192 11224 11143 11239 11193 11168 11185 11253 11100 11059 11000 10868 10731 10509 10501 10493 10378 10329 10143 10044 9958 9987 9802 9728 9771 9887 9782 9740 9587 9444 9370 9182 9140 9177 9062 8878 8719 8659 8666 8578 8545 8557 8507 8517 8574 8576 8637 8757 8631 8637 8669 8646 8520 8519 8564 8540 8610 8695 8673 8670 8716 8786 8765 8729 8722 8597 8628 8611 8475 8441 8118 7952 7733 7598 7478 7441 7434 7533 7596 7700 7874 8091 8195 8286 8450 8492 8751 8949 9161 9284 9383 9570 9608 9707 9629 9660 9645 9632 9717 9851 10036 10261 10421 10724 10934 11037 11187 11405 11403 11523 11530 11562 11436 11401 11458 11391 11500 11633 11655 11614 11784 11977 12061 12152 12086 12142 12097 11973 11939 11978 12007 12063 12032 12091 12098 12072 12121 12213 12277 12300 12448 12569 12663 12663 12816 12805 12904 12998 13005 13093 12940 12763 12714 12774 12750 12887 12901 12781 12805 12860 12911 12934 13027 13015 12953 12945 12837 12837 12876 12844 12868 12911 12918 12833 12829 12915 12959 13026 13004 12941 12975 12961 13175 13223 13242 13365 13374 13514 13669 13771 13964 14174 14464 14635 14753 14981 15072 15087 15318 15432 15578 15697 15733 15855
15049 14990 14873 14724 14550 14357 14139 14007 13783 13721 13647 13531 13291 13115 12986 12919 12729 12636 12516 12452 12328 12307 12386 12303 12182 12280 12399 12395 12366 12282 12114 11948 11753 11663 11568 11408 11263 11205 11234 11147 10986 10821 10685 10675 10648 10543 10561 10445 10407 10580 10743 10891 11071 11066 11117 11093 11096 11129 11139 11110 11078 11051 11000 10906 10840 10678 10551 10489 10487 10318 10258 10133 10026 9952 9930 9792 9765 9790 9787 9708 9618 9464 9439 9292 9203 9138 9075 8897 8768 8677 8651 8563 8571 8581 8479 8558 8522 8524 8611 8661 8734 8692 8682 8732 8693 8630 8566 8660 8648 8615 8697 8735 8745 8810 8856 8793 8756 8631 8529 8548 8532 8446 8363 8043 7807 7648 7575 7519 7453 7628 7680 7757 7788 7883 8047 8181 8208 8408 8514 8752 8872 9078 9202 9348 9452 9483 9618 9586 9614 9631 9681 9810 9841 10008 10151 10325 10546 10825 11001 11161 11275 11321 11449 11431 11381 11345 11303 11380 11420 11525 11699 11699 11698 11819 11847 12003 12131 12090 12068 12000 12023 11984 12051 12096 12062 12046 12126 12026 12006 12111 12105 12191 12268 12384 12417 12461 12630 12732 12770 12855 12928 12972 12971 12805 12761 12685 12705 12778 12845 12765 12710 12771 12729 12795 12740 12843 12854 12800 12784 12762 12729 12810 12765 12718 12753 12690 12675 12614 12650 12753 12760 12739 12707 12726 12864 13115 13245 13294 13390 13433 13448 13528 13691 13843 14087 14258 14392 14536 14741 14933 15023 15154 15391 15503 15544 15671 15841
14826 14738 14637 14526 14403 14179 14053 13882 13647 13645 13558 13420 13199 13014 12912 12724 12669 12573 12421 12361 12249 12186 12257 12172 12174 12209 12261 12177 12140 12160 12136 11888 11731 11616 11538 11423 11239 11157 11038 11008 10921 10720 10524 10543 10553 10512 10517 10450 10442 10601 10741 10777 10896 10902 10957 11014 10995 11067 11035 11039 11025 11009 10850 10821 10847 10721 10665 10528 10455 10345 10325 10197 9973 9833 9774 9689 9689 9616 9580 9560 9602 9498 9390 9339 9268 9173 8975 8839 8738 8662 8532 8589 8552 8574 8526 8470 8492 8593 8710 8704 8814 8795 8739 8768 8709 8749 8692 8663 8720 8666 8693 8749 8801 8728 8795 8712 8617 8610 8572 8574 8488 8422 8258 7998 7776 7658 7618 7521 7488 7671 7730 7798 7855 7948 8081 8112 8204 8383 8433 8639 8762 8903 9103 9204 9379 9428 9517 9633 9625 9680 9704 9835 9888 9987 10069 10325 10473 10599 10824 11041 11144 11199 11375 11346 11410 11305 11280 11319 11371 11444 11630 11631 11790 11799 11812 11963 12143 12141 12210 12198 12120 12123 12153 12121 12040 12092 12043 12065 12022 12013 12148 12190 12283 12364 12464 12499 12617 12663 12661 12787 12928 12920 12939 12846 12743 12603 12621 12672 12782 12698 12645 12659 12677 12749 12752 12838 12803 12826 12759 12784 12676 12670 12567 12471 12460 12451 12344 12429 12388 12470 12481 12576 12533 12685 12937 13113 13212 13153 13225 13351 13384 13519 13674 13734 14019 14154 14373 14512 14588 14867 14974 15084 15330 15408 15561 15603 15646
14730 14497 14386 14345 14182 14064 13997 13788 13619 13465 13409 13252 13166 12992 12766 12601 12490 12398 12419 12243 12145 12112 12169 12145 12040 12129 12102 12131 12042 12013 12054 11943 11833 11697 11501 11375 11204 11024 10897 10876 10747 10634 10448 10339 10340 10411 10382 10351 10401 10495 10691 10815 10813 10853 10922 10863 10846 10960 11026 10972 10980 10885 10807 10801 10854 10740 10754 10572 10484 10437 10283 10179 9959 9829 9714 9660 9530 9441 9453 9459 9505 9387 9334 9258 9305 9150 8952 8831 8681 8640 8531 8642 8627 8558 8503 8434 8474 8661 8762 8805 8859 8887 8904 8775 8769 8812 8775 8797 8693 8690 8721 8752 8794 8698 8691 8651 8513 8547 8503 8564 8508 8288 8193 7913 7747 7702 7564 7501 7429 7634 7741 7792 7873 8056 8179 8227 8261 8238 8335 8496 8604 8762 9019 9220 9412 9418 9530 9581 9580 9679 9763 9824 9912 10031 10032 10208 10326 10436 10655 10836 11032 11180 11226 11306 11363 11395 11301 11289 11212 11446 11624 11659 11799 11816 11864 12026 12150 12233 12299 12307 12201 12285 12255 12151 12064 12048 12040 12068 11976 11975 12071 12170 12189 12285 12420 12594 12667 12693 12658 12812 12880 12789 12819 12740 12675 12579 12560 12560 12627 12579 12647 12694 12702 12741 12803 12806 12828 12806 12838 12720 12622 12540 12419 12265 12207 12157 12086 12120 12168 12192 12227 12356 12471 12742 12898 13056 13101 13091 13186 13188 13239 13400 13540 13658 13867 14048 14254 14438 14563 14750 14872 15036 15307 15464 15531 15523 15576
14677 14499 14306 14118 13984 13873 13916 13690 13591 13506 13345 13119 13037 12834 12708 12559 12573 12463 12405 12270 12245 12201 12290 12223 12127 12281 12280 12248 12088 12050 12131 11931 11812 11645 11508 11432 11230 11185 11071 10971 10793 10774 10627 10550 10464 10460 10578 10436 10366 10521 10713 10814 10809 10966 11036 10919 10903 10968 11021 11070 10989 10899 10856 10828 10824 10810 10790 10667 10491 10392 10257 10211 10044 9905 9730 9646 9512 9462 9524 9459 9416 9378 9310 9216 9277 9106 8859 8787 8633 8533 8594 8581 8624 8611 8473 8485 8460 8567 8679 8814 8842 8847 8768 8690 8708 8795 8788 8801 8841 8808 8737 8799 8795 8673 8647 8519 8424 8459 8428 8426 8356 8187 8010 7862 7742 7568 7470 7298 7210 7395 7535 7551 7648 7849 7931 7946 8090 8120 8302 8394 8486 8706 8882 9067 9206 9348 9411 9500 9541 9639 9632 9665 9707 9856 9936 10117 10300 10456 10590 10771 10904 10913 10988 11148 11237 11210 11266 11245 11183 11256 11476 11585 11672 11731 11850 11859 12007 12037 12150 12169 12039 12147 12143 12107 12061 12003 11935 11966 12036 11955 12026 12072 12026 12142 12308 12493 12595 12521 12592 12679 12742 12690 12721 12575 12538 12542 12446 12447 12443 12541 12658 12550 12581 12650 12760 12821 12829 12706 12659 12559 12518 12451 12305 12163 12056 12006 12020 12027 12091 12110 12160 12271 12395 12576 12713 12780 12858 12925 12969 13057 13137 13185 13301 13532 13761 13927 14139 14343 14478 14689 14769 14966 15210 15264 15335 15455 15533
14689 14482 14231 14031 13822 13727 13714 13631 13593 13403 13269 13091 12995 12806 12625 12561 12553 12489 12405 12279 12221 12302 12333 12330 12287 12350 12351 12360 12247 12217 12117 12023 11853 11727 11630 11448 11350 11243 11157 11098 10943 10876 10742 10751 10675 10617 10675 10561 10445 10555 10676 10740 10908 11028 11043 10994 11043 11060 11040 11114 11068 11024 10993 10891 10875 10838 10824 10712 10550 10467 10281 10185 10099 9972 9770 9604 9459 9506 9487 9389 9351 9265 9188 9240 9220 9029 8834 8642 8566 8507 8570 8630 8602 8576 8479 8482 8541 8631 8663 8703 8846 8842 8749 8696 8672 8717 8847 8926 8899 8859 8805 8877 8913 8734 8545 8514 8446 8355 8291 8228 8243 8024 7856 7690 7611 7396 7294 7227 7080 7272 7365 7383 7455 7621 7674 7771 7941 8075 8278 8308 8450 8595 8780 8914 9086 9108 9169 9294 9456 9539 9604 9615 9552 9804 9958 10111 10295 10414 10577 10673 10719 10814 10876 11002 11136 11088 11128 11088 11032 11120 11258 11404 11544 11690 11800 11763 11827 11882 12032 12024 11917 11993 12130 12025 12040 11900 11864 11932 12004 12001 11915 11912 11962 12134 12250 12348 12407 12463 12517 12560 12642 12580 12564 12451 12326 12371 12350 12348 12380 12529 12557 12512 12391 12457 12623 12730 12924 12787 12558 12484 12418 12324 12231 12045 11867 11858 11918 11956 11968 12118 12220 12272 12354 12480 12490 12523 12564 12738 12825 12947 12990 13094 13158 13394 13609 13799 14083 14242 14383 14535 14751 14925 15066 15203 15258 15282 15384
14547 14383 14133 13952 13806 13730 13628 13523 13465 13310 13243 13133 12978 12886 12716 12564 12467 12427 12459 12337 12273 12313 12392 12386 12319 12375 12365 12311 12281 12162 11979 11944 11831 11655 11652 11549 11452 11308 11225 11117 10943 11009 10905 10844 10797 10813 10760 10676 10541 10620 10813 10877 11061 11086 11056 11020 11118 11161 11239 11199 11208 11155 11100 10971 11027 10832 10802 10638 10503 10441 10241 10117 10093 9975 9908 9784 9578 9511 9505 9414 9296 9275 9206 9201 9130 9022 8741 8633 8512 8451 8529 8596 8586 8528 8430 8515 8459 8571 8673 8765 8785 8740 8700 8687 8702 8758 8785 8962 8956 8953 8924 8932 8894 8721 8596 8577 8548 8431 8295 8195 8085 7897 7644 7585 7432 7349 7166 7025 6991 7049 7209 7267 7260 7453 7582 7679 7843 8009 8241 8274 8355 8440 8546 8768 8924 8953 9059 9173 9348 9443 9418 9496 9453 9665 9749 9960 10200 10284 10476 10539 10643 10735 10725 10790 10940 10939 10965 11043 10978 11057 11183 11373 11454 11515 11681 11600 11677 11721 11881 11789 11812 11837 12039 11963 11954 11959 11915 11875 11973 11969 11813 11884 11890 11965 12209 12191 12287 12354 12382 12524 12608 12564 12483 12416 12294 12356 12310 12265 12282 12428 12422 12348 12374 12401 12498 12631 12812 12593 12362 12353 12253 12164 12001 11897 11690 11789 11824 11839 11927 12111 12151 12222 12247 12269 12323 12334 12371 12490 12732 12823 12809 12939 13014 13248 13507 13732 13990 14133 14324 14473 14680 14882 15065 15119 15170 15261 15295
14422 14238 14075 13929 13718 13682 13607 13511 13434 13324 13106 12993 12981 12881 12698 12611 12509 12522 12422 12461 12447 12408 12375 12387 12362 12375 12386 12301 12229 12092 11952 11839 11712 11662 11652 11533 11469 11331 11285 11175 11061 11081 11080 10965 10912 10940 10905 10761 10720 10754 10848 10941 11098 11083 11028 11056 11193 11265 11332 11373 11289 11261 11113 11083 11067 10821 10700 10579 10540 10345 10226 10153 10074 10031 9951 9827 9616 9621 9513 9293 9183 9111 9160 9112 9064 8965 8760 8646 8565 8512 8510 8561 8660 8482 8433 8450 8362 8494 8626 8663 8722 8671 8654 8680 8825 8880 8816 8977 9028 9066 8985 8969 8888 8783 8622 8591 8573 8470 8321 8145 7961 7710 7529 7394 7351 7227 7146 6949 6823 6940 6984 7061 7137 7195 7369 7656 7838 8027 8152 8177 8318 8303 8386 8546 8696 8835 8871 9056 9164 9244 9331 9391 9403 9476 9635 9885 10014 10214 10391 10543 10601 10549 10623 10683 10779 10853 10857 10900 10985 11068 11215 11276 11295 11337 11460 11496 11487 11581 11618 11652 11604 11695 11828 11826 11934 11827 11843 11905 11932 11862 11754 11777 11716 11882 12049 12173 12223 12322 12325 12437 12608 12457 12434 12342 12200 12208 12211 12217 12230 12314 12332 12313 12325 12347 12453 12547 12770 12489 12278 12139 12034 11940 11724 11692 11589 11673 11694 11815 11870 12001 12057 12113 12082 12167 12248 12299 12236 12361 12553 12561 12648 12779 12878 13042 13310 13574 13839 14022 14188 14408 14623 14848 14981 14997 15104 15185 15316
14439 14321 14168 13931 13774 13689 13525 13422 13359 13276 13201 13099 13077 12986 12764 12701 12654 12587 12534 12546 12606 12536 12509 12432 12513 12405 12430 12309 12326 12172 12100 11842 11681 11652 11663 11576 11486 11391 11300 11290 11180 11218 11148 11101 11084 11028 11026 10970 10853 10960 11059 11122 11085 11064 11081 11062 11157 11180 11292 11309 11217 11256 11257 11188 11134 10902 10819 10676 10566 10377 10260 10207 10065 10091 10007 9810 9630 9540 9389 9289 9189 9123 8998 8990 8974 8772 8687 8639 8500 8548 8488 8558 8659 8604 8528 8502 8376 8442 8494 8636 8783 8740 8753 8838 8898 8900 8848 8909 9077 9020 8884 8837 8877 8683 8529 8553 8552 8442 8208 8010 7841 7569 7424 7327 7283 7123 6966 6881 6648 6748 6793 6946 7001 7236 7359 7583 7864 7961 8003 8104 8252 8273 8381 8500 8633 8640 8707 8892 9065 9104 9284 9316 9370 9487 9538 9722 9823 10034 10254 10329 10454 10497 10553 10593 10599 10601 10610 10698 10847 11001 11087 11075 11213 11237 11240 11388 11402 11497 11566 11535 11507 11532 11559 11673 11779 11731 11620 11654 11731 11596 11636 11532 11519 11674 11758 11887 11936 12168 12286 12376 12466 12419 12329 12164 12151 12226 12188 12193 12194 12302 12262 12163 12183 12342 12442 12532 12697 12484 12351 12237 12140 11906 11787 11693 11528 11628 11636 11680 11807 11968 11988 12089 12134 12088 12156 12142 12141 12319 12435 12481 12518 12748 12792 13056 13190 13485 13731 13907 14156 14335 14513 14655 14881 14902 15025 15072 15239
14362 14306 14172 14007 13811 13677 13506 13497 13373 13316 13253 13116 13095 13031 12854 12844 12864 12786 12692 12797 12808 12708 12595 12532 12568 12556 12430 12435 12325 12213 12132 11913 11710 11731 11699 11691 11619 11516 11407 11375 11317 11365 11312 11275 11341 11248 11129 11125 10995 11058 11146 11180 11191 11174 11093 11092 11041 11223 11283 11262 11252 11258 11311 11245 11221 11064 10926 10694 10508 10349 10298 10249 10144 10067 10020 9873 9698 9553 9391 9308 9130 9029 8935 8870 8894 8709 8653 8586 8564 8557 8548 8574 8651 8631 8499 8414 8288 8302 8416 8611 8765 8888 8919 8917 8908 8987 8954 8991 9019 8887 8810 8776 8762 8562 8435 8410 8467 8287 7985 7809 7604 7551 7416 7380 7233 7055 6828 6733 6520 6601 6661 6822 6994 7191 7390 7545 7768 7797 7881 8012 8214 8252 8334 8457 8615 8610 8572 8726 8925 9037 9161 9274 9261 9383 9380 9531 9720 10000 10155 10288 10433 10433 10464 10504 10427 10437 10492 10647 10829 10854 10846 10982 11069 11039 11113 11265 11417 11352 11416 11376 11325 11409 11383 11441 11536 11547 11461 11467 11455 11394 11461 11288 11235 11396 11467 11553 11763 11884 12131 12278 12417 12214 12107 12005 12021 12155 12196 12217 12198 12271 12247 12126 12073 12223 12413 12495 12703 12585 12451 12341 12148 11908 11756 11720 11583 11571 11681 11685 11816 11859 11872 11985 12100 12068 12095 12045 12032 12144 12217 12314 12491 12694 12796 12975 13096 13467 13713 13917 14137 14246 14334 14583 14743 14931 15015 15037 15049
14310 14225 14096 13943 13803 13676 13630 13568 13401 13332 13292 13233 13070 13068 12980 12895 12947 12923 12870 12907 12894 12789 12744 12700 12681 12605 12514 12409 12315 12304 12215 12019 11827 11767 11712 11734 11715 11678 11551 11529 11598 11579 11525 11460 11541 11435 11224 11226 11067 11148 11213 11138 11172 11173 11123 11122 11036 11045 11123 11080 11102 11191 11236 11174 11232 11025 10894 10709 10583 10455 10291 10309 10273 10201 10069 9867 9747 9544 9273 9202 8984 8903 8877 8831 8888 8772 8744 8677 8572 8608 8654 8584 8646 8483 8412 8277 8192 8294 8434 8525 8691 8838 8867 8937 8879 8920 9048 9024 8959 8884 8800 8793 8724 8541 8420 8431 8397 8120 7968 7783 7471 7341 7160 7089 6993 6795 6712 6562 6322 6447 6590 6778 6931 7060 7249 7523 7707 7678 7831 8028 8115 8201 8273 8443 8546 8508 8453 8614 8640 8862 8914 9040 9115 9241 9292 9487 9701 9830 9997 10135 10214 10194 10301 10246 10245 10319 10466 10538 10717 10696 10684 10828 10853 10871 10996 11135 11224 11149 11183 11160 11184 11299 11325 11315 11408 11434 11416 11324 11300 11311 11228 11179 11066 11219 11292 11405 11570 11774 11958 12047 12264 12132 12109 12052 11945 12057 12188 12094 12061 12027 12082 12029 12091 12187 12398 12523 12595 12565 12392 12222 12085 11912 11776 11685 11571 11602 11588 11706 11734 11746 11797 11981 12133 12072 12070 12011 11917 11976 12119 12248 12279 12466 12722 12796 12985 13235 13591 13758 14033 14172 14304 14487 14624 14832 14910 14952 14904
14292 14161 13961 13815 13691 13717 13711 13679 13541 13473 13298 13230 13061 13099 13044 13045 13010 12934 12982 13010 13088 12892 12806 12687 12680 12555 12499 12423 12246 12267 12219 12084 11958 11864 11741 11795 11753 11684 11729 11708 11786 11683 11625 11711 11674 11546 11408 11255 11181 11214 11252 11233 11217 11251 11273 11193 11082 11010 11019 10948 11006 11106 11208 11139 11163 11031 10956 10724 10557 10406 10375 10357 10340 10271 10137 9907 9760 9495 9193 9041 8844 8903 8880 8821 8879 8745 8735 8691 8609 8659 8676 8635 8609 8470 8271 8258 8124 8295 8445 8583 8712 8769 8881 8937 8972 9017 9086 8999 8968 8861 8751 8624 8620 8505 8379 8257 8241 8027 7842 7644 7409 7209 7028 6938 6866 6678 6570 6336 6038 6289 6467 6646 6745 6970 7096 7375 7589 7602 7722 7957 8106 8096 8214 8378 8420 8424 8346 8428 8433 8637 8741 8807 8937 9105 9308 9449 9666 9772 9815 9964 10055 10024 10027 10037 10114 10193 10347 10395 10496 10566 10579 10589 10667 10749 10862 11015 11114 11043 10985 10997 11032 11172 11287 11297 11374 11307 11339 11228 11193 11159 11063 11038 10969 11061 11198 11251 11379 11566 11745 11882 12006 12007 12015 12010 11912 11957 12061 12053 12017 11924 11951 11947 12039 12148 12357 12422 12491 12492 12385 12300 12141 11918 11728 11641 11460 11539 11605 11635 11716 11815 11818 11974 12100 12082 12067 11910 11866 11970 12017 12115 12114 12394 12571 12668 12808 13058 13374 13706 13982 14163 14305 14404 14570 14649 14775 14801 14730
14260 14189 13966 13797 13697 13723 13661 13745 13663 13476 13395 13230 13099 13015 13067 13020 12964 13047 13008 13021 13098 13019 12820 12781 12701 12606 12519 12465 12290 12179 12218 12117 12011 12047 11938 11826 11798 11763 11725 11777 11856 11831 11735 11710 11699 11639 11515 11358 11216 11214 11232 11234 11235 11224 11191 11203 11092 11055 11014 10980 11016 11074 11239 11188 11263 11106 10959 10773 10548 10413 10396 10339 10409 10187 10094 9886 9651 9469 9108 8942 8789 8759 8775 8767 8852 8717 8663 8617 8549 8577 8636 8605 8587 8513 8309 8317 8220 8368 8507 8581 8729 8835 8892 8958 8979 8918 8977 8903 8888 8767 8714 8665 8699 8467 8292 8270 8217 8031 7743 7637 7373 7166 6984 6803 6806 6542 6337 6171 5999 6141 6341 6521 6574 6737 6944 7124 7320 7398 7493 7670 7778 7859 8001 8158 8191 8145 8162 8304 8243 8484 8668 8722 8707 8931 9197 9247 9430 9534 9509 9711 9824 9760 9831 9851 9899 9861 9981 10121 10158 10206 10316 10284 10394 10449 10519 10760 10909 10924 10836 10871 10988 11039 11011 11076 11205 11143 11169 11091 11100 11073 10963 10897 10911 10913 10968 11142 11259 11460 11529 11649 11762 11761 11779 11786 11654 11715 11840 11841 11915 11977 12018 11972 11914 12087 12165 12294 12372 12287 12303 12119 11933 11886 11699 11549 11523 11486 11529 11632 11714 11660 11682 11730 11841 11885 11842 11744 11743 11862 12028 12020 12165 12268 12493 12597 12701 13024 13310 13555 13850 14034 14182 14306 14322 14527 14608 14562 14562
14186 14137 14027 13856 13739 13693 13727 13759 13668 13504 13423 13208 13033 13002 12984 13044 13046 13060 13048 13186 13207 13041 12938 12849 12840 12802 12660 12503 12231 12180 12249 12205 12162 12128 12028 12005 11882 11876 11815 11855 11970 11929 11860 11782 11748 11665 11510 11296 11198 11231 11153 11153 11128 11204 11171 11190 11099 11094 11111 11105 11042 11123 11293 11281 11309 11127 10954 10751 10485 10527 10513 10406 10362 10225 10017 9823 9585 9391 9128 8952 8689 8725 8782 8835 8796 8754 8703 8692 8604 8620 8531 8520 8611 8539 8408 8347 8317 8409 8533 8610 8740 8814 8865 8985 8988 8873 8854 8768 8780 8768 8787 8702 8692 8523 8286 8186 8170 7993 7712 7545 7264 7085 6892 6727 6639 6435 6205 5991 5890 6068 6209 6345 6459 6652 6840 6923 7067 7182 7291 7394 7531 7661 7766 7929 8057 8025 8026 8145 8149 8353 8529 8491 8581 8833 8981 9133 9224 9222 9322 9367 9500 9498 9587 9585 9625 9616 9727 9772 9919 9881 9961 10028 10140 10238 10251 10504 10672 10697 10634 10722 10847 10848 10840 10895 11000 11019 11099 10972 10943 10919 10792 10868 10839 10804 10826 10940 11093 11275 11346 11432 11531 11459 11475 11495 11443 11476 11585 11629 11793 11833 11969 11943 11866 11953 12002 12186 12265 12145 12131 11942 11764 11784 11720 11542 11462 11465 11453 11627 11708 11656 11615 11615 11711 11715 11726 11665 11676 11800 11967 12001 12090 12264 12457 12621 12700 12980 13256 13472 13767 13882 14046 14066 14165 14309 14384 14433 14520
14117 14146 14076 13903 13803 13728 13763 13701 13734 13487 13386 13251 13099 13047 13097 13149 13143 13109 13057 13207 13206 13119 12955 12907 12808 12727 12653 12569 12372 12376 12395 12261 12194 12221 12141 12084 11939 11991 11903 11970 11995 11945 11831 11839 11805 11624 11523 11395 11146 11159 11104 11130 11117 11105 11143 11208 11251 11238 11198 11233 11192 11188 11285 11247 11248 11039 10896 10742 10531 10479 10499 10396 10302 10091 9874 9621 9458 9271 9126 8896 8703 8736 8833 8853 8813 8763 8709 8611 8635 8633 8470 8458 8508 8366 8340 8388 8300 8502 8610 8754 8861 8890 8904 8944 9011 8975 8849 8759 8750 8732 8742 8632 8649 8404 8262 8113 8090 7877 7679 7497 7224 7027 6782 6619 6455 6300 6068 5991 5892 5994 6133 6188 6262 6484 6550 6738 6960 7096 7149 7265 7376 7494 7626 7691 7947 7920 7959 8044 8035 8274 8347 8487 8529 8704 8885 8921 8971 9118 9182 9218 9281 9257 9307 9274 9386 9340 9394 9552 9622 9677 9688 9877 9963 10068 10090 10218 10336 10446 10443 10504 10573 10729 10770 10735 10810 10920 10937 10807 10847 10840 10791 10778 10692 10731 10783 10861 10959 11017 11125 11112 11190 11151 11190 11210 11217 11339 11387 11571 11672 11745 11854 11854 11945 11939 12038 12066 12090 12069 11959 11800 11688 11682 11596 11488 11359 11504 11510 11563 11608 11553 11549 11487 11640 11636 11600 11625 11636 11679 11785 11848 11990 12156 12436 12574 12756 12902 13014 13231 13521 13725 13821 13942 14040 14090 14210 14367 14425
14146 14093 14023 13863 13826 13859 13792 13685 13674 13508 13436 13235 13115 13082 13152 13159 13125 13175 13116 13203 13185 13080 13060 12942 12884 12755 12711 12608 12467 12441 12438 12405 12320 12331 12271 12144 12021 12055 11980 12037 11980 11959 11880 11804 11764 11604 11553 11386 11209 11166 11098 11002 10986 11049 11036 11225 11338 11411 11397 11318 11292 11253 11224 11216 11274 11056 10906 10802 10608 10539 10534 10418 10231 9953 9777 9556 9329 9163 9108 8932 8767 8810 8931 8963 8897 8750 8603 8644 8566 8560 8522 8442 8442 8314 8295 8398 8377 8546 8764 8819 8911 8893 8917 8950 9028 8925 8788 8805 8749 8726 8659 8641 8681 8426 8282 8101 7946 7851 7642 7329 7129 6875 6580 6428 6243 6076 5977 5851 5817 5847 5994 6087 6075 6241 6351 6528 6789 6905 6943 7023 7143 7227 7380 7517 7755 7873 7946 7936 7952 8161 8263 8346 8467 8557 8673 8696 8840 8974 9037 9079 9071 9084 9011 9025 9102 9161 9141 9238 9391 9412 9489 9669 9802 9828 9821 9926 10081 10189 10303 10296 10418 10501 10590 10575 10662 10723 10766 10703 10687 10683 10740 10714 10641 10630 10687 10788 10863 10799 10841 10868 10835 10828 10876 10881 10955 11192 11316 11409 11527 11596 11776 11898 11934 11972 11959 11975 11951 11850 11668 11666 11597 11480 11426 11419 11310 11435 11505 11449 11511 11469 11386 11383 11501 11416 11404 11475 11517 11581 11640 11720 11894 12093 12363 12557 12711 12745 12881 13155 13304 13494 13584 13707 13883 13936 14009 14196 14372
