23493 23395 23222 23170 23070 22968 22861 22848 22964 22920 22895 23012 23064 22952 22963 22894 22907 22799 22857 22729 22750 22699 22696 22680 22538 23130 23048 23048 23048 23048 23034 22702 22635 22617 22741 22725 22764 22924 23102 23166 23183 23337 23429 23510 23565 23545 23583 23619 23610 23726 23863 23850 23862 23895 23984 23828 23790 23766 23826 23814 23667 23649 23507 23439 23418 23325 23264 23113 23036 22950 22970 22843 22856 22851 22845 22729 22716 22668 22613 22584 22586 22492 22369 22299 22331 22129 22019 21818 21613 21468 21470 21456 21406 21272 21206 21196 21047 21206 21283 21475 21566 21672 21705 21695 21785 21745 21852 21890 22007 21789 21607 21520 21416 21602 21827 22033 22082 22296 22418 22477 22520 22613 22733 22898 23152 23109 23170 23289 23377 23302 23294 23235 23140 23120 23030 22869 22663 22630 22674 22655 22618 22534 22432 22352 22419 22569 22623 22708 22765 22742 22662 22553 22509 22539 22716 22806 22879 22943 23117 23189 23231 22992 22806 22817 22670 22627 22446 22408 22247 22125 21981 21780 21647 21403 21243 20980 20825 20774 20872 20983 21125 21171 21358 21403 21517 21405 21357 21124 21035 21034 20963 21034 21014 20665 20407 20137 19811 19593 19262 19214 19214 19214 19214 19133 18482 18278 18118 17934 17794 17587 17498 17357 17353 17142 16871 16773 16655 16307 16073 15734 15434 15216 14849 14507 14272 14035 13930 13788 13552 13435 13192 13111 12981 12910 12831 12622 12507 12467 12395 12332 12269 12105 11867 11674 11519 11374 11147 10961 10837 10761 10767 10703 10693 10645 10659 10528 10522
23490 23374 23318 23241 23091 22985 22872 22834 22921 22826 22788 22783 22892 22932 22870 22858 22781 22796 22834 22764 22803 22758 22707 22740 22669 23140 23085 23085 23085 23085 23052 22702 22764 22717 22791 22775 22772 22975 23088 23158 23126 23145 23286 23409 23487 23546 23656 23626 23640 23782 23813 23902 23916 23867 23939 23821 23782 23833 23875 23765 23697 23647 23594 23522 23535 23411 23374 23312 23179 23156 23096 22956 22922 22811 22738 22639 22647 22599 22571 22581 22544 22441 22398 22439 22370 22176 22108 21876 21632 21574 21500 21560 21519 21382 21314 21182 21044 21147 21321 21552 21739 21760 21741 21778 21752 21886 21898 22025 22059 21816 21696 21576 21457 21655 21786 22006 22136 22315 22382 22404 22387 22554 22655 22859 23102 23154 23263 23341 23358 23268 23270 23251 23134 23034 23011 22808 22715 22825 22846 22765 22707 22588 22528 22512 22540 22616 22747 22798 22729 22642 22670 22659 22564 22622 22769 22894 22944 23014 23176 23167 23263 23034 22814 22814 22697 22595 22437 22274 22051 21906 21886 21808 21626 21404 21301 21095 20882 20864 20877 21058 21121 21214 21402 21413 21493 21412 21386 21236 21012 20995 20982 21007 21026 20769 20459 20243 19950 19707 19276 19260 19260 19260 19260 19162 18424 18255 18036 17876 17692 17557 17407 17313 17253 17090 16902 16767 16666 16376 16073 15744 15439 15107 14857 14508 14281 14176 14117 13926 13716 13529 13409 13317 13115 13012 12901 12672 12544 12467 12411 12345 12197 11935 11744 11542 11458 11285 11130 11029 10813 10758 10764 10721 10638 10597 10645 10571 10575
23339 23286 23323 23241 23091 22990 22951 22919 22839 22764 22772 22807 22851 22847 22777 22709 22693 22858 22890 22930 22910 22951 22973 22852 22797 23145 23118 23118 23118 23118 23083 22861 22863 22762 22799 22751 22846 22993 23065 23054 23110 23098 23163 23328 23462 23458 23526 23529 23563 23694 23642 23808 23837 23839 23888 23859 23836 23807 23912 23784 23697 23638 23569 23595 23525 23447 23365 23300 23315 23149 23029 22905 22847 22847 22767 22602 22584 22630 22548 22568 22614 22566 22437 22433 22343 22253 22040 21886 21773 21661 21522 21555 21542 21444 21353 21180 21038 21178 21406 21523 21679 21805 21864 21850 21872 21961 21936 22046 21972 21799 21741 21706 21570 21660 21871 21981 22208 22309 22298 22377 22388 22517 22699 22849 23111 23232 23331 23368 23404 23407 23346 23183 23069 23037 23013 22823 22690 22785 22953 22894 22840 22805 22746 22710 22594 22775 22850 22859 22815 22715 22635 22584 22543 22600 22776 22835 22861 22989 23112 23189 23337 23076 22780 22710 22529 22368 22293 22065 21924 21797 21791 21640 21551 21401 21204 21061 20883 20879 20899 21002 21154 21234 21337 21452 21542 21433 21482 21272 21035 21052 21020 20953 21001 20790 20450 20264 19901 19694 19300 19300 19300 19300 19300 18476 18359 18207 18071 17970 17774 17581 17392 17345 17230 16995 16855 16770 16746 16440 16019 15683 15378 15138 14934 14633 14373 14347 14235 13983 13807 13613 13557 13467 13264 13119 13039 12801 12628 12465 12425 12325 12131 11901 11711 11520 11358 11252 11108 10971 10826 10786 10709 10612 10561 10572 10622 10558 10594
23287 23235 23245 23128 23029 22978 22943 22882 22709 22683 22659 22730 22787 22819 22735 22726 22650 22808 22967 22957 23050 23050 23120 23022 23052 23157 23142 23142 23142 23142 23097 22991 22967 22825 22800 22756 22805 22925 23010 23019 23042 23042 23141 23276 23475 23455 23499 23425 23431 23537 23555 23643 23828 23830 23911 23938 23905 23850 23915 23805 23723 23738 23652 23619 23621 23454 23416 23414 23414 23285 23074 22880 22780 22826 22762 22645 22608 22602 22607 22704 22805 22623 22486 22414 22384 22216 22028 21918 21835 21688 21649 21565 21592 21517 21324 21167 21136 21332 21565 21679 21740 21870 21942 21886 21914 21933 22035 22059 21996 21919 21902 21795 21640 21755 21850 22082 22193 22260 22244 22246 22319 22504 22769 22885 23077 23258 23344 23437 23410 23426 23352 23172 23081 23086 23005 22892 22794 22919 22956 22980 22967 22933 22868 22803 22729 22793 22905 22886 22835 22697 22671 22575 22585 22656 22805 22794 22884 22963 23090 23244 23340 23104 22816 22655 22388 22265 22158 21927 21821 21714 21666 21474 21383 21297 21183 21085 20999 21021 20998 21093 21214 21202 21257 21381 21503 21462 21452 21281 21162 21075 21023 21013 21033 20717 20466 20250 19937 19401 19339 19339 19339 19339 19328 18403 18350 18151 18050 17926 17776 17593 17452 17339 17145 16988 16812 16763 16712 16386 15994 15661 15442 15127 14935 14814 14570 14392 14333 14134 13860 13817 13743 13591 13409 13242 13113 12903 12643 12556 12439 12242 12153 11931 11794 11530 11340 11266 11138 10907 10714 10685 10687 10579 10487 10569 10713 10698 10726
23219 23217 23179 23020 22923 22949 22828 22678 22645 22652 22652 22729 22766 22750 22645 22593 22699 22759 22934 22958 23023 23038 23018 23076 23087 23164 23164 23164 23164 23164 22914 22939 22979 22897 22856 22906 22952 23048 23042 23071 23052 23144 23230 23332 23506 23492 23511 23487 23485 23607 23633 23698 23824 23767 23846 23837 23815 23796 23785 23795 23740 23681 23595 23685 23708 23640 23519 23538 23515 23400 23159 23031 22887 22927 22908 22921 22777 22841 22870 22856 22936 22720 22667 22561 22512 22414 22188 22119 21987 21889 21681 21650 21562 21449 21383 21289 21184 21399 21527 21617 21718 21825 21949 22009 22026 21999 22064 21997 22016 21905 21827 21728 21719 21809 21949 22120 22184 22264 22307 22417 22484 22651 22874 23006 23167 23296 23389 23525 23507 23475 23432 23342 23111 23177 23067 22987 22913 22978 22950 22986 22983 22940 22948 22894 22767 22918 23015 22983 22860 22713 22716 22745 22704 22691 22806 22915 22980 22982 23101 23202 23273 23076 22843 22620 22380 22309 22092 22021 21861 21747 21677 21514 21485 21403 21229 21177 21122 21108 20998 21143 21246 21246 21271 21300 21433 21381 21343 21163 21068 21006 20976 20916 20954 20678 20473 20245 19949 19424 19373 19373 19373 19373 19342 18389 18393 18212 18005 17913 17887 17717 17496 17336 17061 16947 16859 16824 16723 16351 16079 15733 15502 15182 14981 14749 14641 14435 14321 14103 13984 13835 13639 13517 13437 13203 13054 12869 12627 12506 12502 12279 12231 11959 11753 11561 11316 11268 11145 10976 10825 10793 10735 10618 10545 10517 10570 10651 10809
23258 23207 23100 23052 22902 22855 22692 22588 22472 22532 22623 22630 22754 22694 22576 22551 22636 22794 22940 22932 22912 22995 23036 23071 23085 23183 23183 23183 23183 23183 22776 22793 22884 22854 22875 23000 23136 23179 23194 23151 23010 23098 23291 23329 23491 23449 23503 23581 23631 23772 23803 23787 23854 23757 23749 23720 23788 23787 23779 23726 23660 23631 23617 23608 23722 23762 23698 23718 23691 23473 23239 23148 23006 23140 23158 23113 22996 23008 23013 23111 23084 22906 22793 22665 22602 22514 22359 22230 22082 21986 21812 21699 21502 21517 21440 21379 21359 21430 21575 21665 21774 21758 21853 22041 22155 22035 21989 22054 22097 22028 21872 21766 21768 21856 21933 22084 22113 22187 22295 22471 22597 22750 22895 22990 23177 23313 23344 23521 23577 23573 23464 23404 23239 23272 23207 23085 23050 23007 23047 22990 22959 22973 23005 22903 22878 22953 23049 22995 22893 22797 22760 22752 22786 22833 22914 23053 23075 23035 23050 23172 23245 23013 22762 22665 22483 22313 22144 22088 21938 21808 21604 21522 21515 21386 21331 21252 21206 21153 21047 21158 21256 21160 21183 21198 21286 21258 21278 21111 21026 20920 20869 20880 20910 20712 20422 20135 19936 19432 19402 19402 19402 19402 19363 18414 18393 18158 18000 18006 17948 17750 17491 17216 17029 16942 16917 16734 16635 16329 16055 15788 15457 15207 14931 14780 14614 14454 14223 14089 13996 13836 13610 13531 13434 13258 13121 12888 12619 12575 12478 12359 12212 11998 11700 11479 11311 11252 11112 10968 10911 10860 10709 10605 10497 10504 10553 10646 10773
23286 23232 23081 23049 22932 22799 22754 22648 22491 22504 22504 22596 22695 22615 22639 22598 22778 22844 22843 22932 22907 22945 23082 23021 23059 23201 23201 23201 23201 23201 22660 22779 22800 22903 22964 23112 23219 23243 23197 23112 23134 23156 23267 23349 23468 23482 23613 23690 23685 23802 23833 23780 23841 23754 23711 23737 23787 23817 23779 23703 23724 23716 23706 23766 23815 23831 23713 23740 23812 23560 23415 23281 23145 23192 23236 23195 23204 23156 23243 23244 23277 23087 22978 22911 22742 22625 22400 22310 22090 21961 21800 21671 21640 21595 21553 21455 21472 21535 21580 21721 21816 21838 21998 22179 22282 22194 22102 22011 22062 22011 22013 21819 21761 21984 22048 22123 22136 22222 22415 22603 22696 22834 22922 23016 23189 23279 23383 23473 23604 23543 23434 23394 23299 23275 23255 23174 23039 23028 23114 23092 22985 22992 22978 22848 22841 22981 23045 23032 22997 22910 22917 22935 22901 22998 23047 23149 23194 23091 23090 23225 23253 22975 22739 22633 22613 22381 22121 22010 21879 21819 21692 21607 21701 21567 21398 21311 21178 21186 21117 21168 21247 21234 21269 21171 21225 21171 21194 21088 20998 20898 20746 20709 20729 20595 20349 20067 19863 19447 19428 19428 19428 19428 19372 18508 18399 18209 17992 18004 17945 17713 17510 17264 17048 16928 16851 16677 16511 16235 16045 15826 15490 15250 14902 14689 14549 14443 14201 14092 14034 13851 13569 13461 13449 13333 13178 12948 12718 12614 12559 12363 12150 12003 11663 11564 11441 11321 11152 10956 10844 10862 10734 10710 10632 10657 10624 10627 10611
23250 23184 23063 22989 22971 22909 22797 22679 22445 22431 22384 22503 22536 22541 22663 22679 22819 22843 22808 22895 22931 23002 23016 22943 22971 23212 23212 23212 23212 23212 22621 22723 22756 22889 22936 23108 23276 23164 23138 23206 23180 23255 23247 23343 23404 23547 23653 23692 23658 23780 23828 23813 23820 23818 23781 23791 23883 23831 23874 23763 23677 23708 23778 23765 23869 23840 23850 23803 23817 23647 23490 23447 23378 23387 23433 23432 23337 23380 23470 23423 23472 23280 23143 23016 22825 22651 22445 22304 22175 22058 21874 21727 21653 21636 21702 21665 21513 21610 21622 21731 21765 21880 22024 22207 22286 22152 22090 22038 22039 21997 22080 21931 21879 22031 22103 22099 22217 22310 22465 22596 22817 22879 22973 23011 23137 23261 23464 23527 23698 23575 23504 23472 23320 23325 23322 23257 23134 23122 23152 23037 22918 22853 22861 22850 22835 22894 23023 23145 23161 23120 23143 23060 22914 23037 23253 23239 23345 23231 23245 23263 23167 22981 22811 22674 22643 22386 22156 21988 21886 21766 21757 21749 21775 21642 21574 21407 21164 21083 21078 21151 21237 21313 21267 21200 21258 21227 21128 21092 20960 20883 20716 20638 20643 20427 20220 20001 19683 19454 19454 19454 19454 19454 18729 18592 18468 18328 18105 17986 17940 17789 17575 17359 17141 16892 16700 16615 16466 16198 16005 15796 15535 15244 14975 14748 14445 14413 14278 14119 13980 13800 13611 13519 13453 13382 13189 13001 12776 12660 12522 12388 12131 11966 11722 11588 11519 11382 11270 11067 10862 10836 10716 10693 10747 10656 10607 10586 10575
23266 23202 23196 23132 23022 22926 22877 22695 22489 22521 22562 22580 22501 22525 22604 22773 22830 22920 22879 22875 23004 22941 23014 22931 22860 23220 23220 23220 23220 23220 22615 22733 22773 22901 22994 23078 23230 23168 23188 23308 23283 23427 23454 23484 23599 23648 23652 23701 23629 23723 23735 23770 23802 23795 23790 23784 23876 23821 23924 23840 23688 23676 23650 23690 23896 23869 23911 23782 23752 23653 23562 23510 23436 23434 23455 23394 23464 23487 23442 23451 23429 23292 23043 22943 22755 22642 22484 22349 22180 22082 21889 21889 21820 21797 21789 21757 21584 21697 21766 21837 21968 22069 22070 22254 22363 22335 22285 22169 22053 22100 22172 22089 22138 22207 22288 22369 22384 22577 22727 22870 22989 23100 23131 23205 23252 23399 23516 23580 23697 23612 23584 23538 23395 23369 23287 23296 23186 23115 23078 23026 22899 22915 22880 22845 22812 22871 23060 23177 23219 23176 23271 23167 23122 23198 23284 23356 23445 23332 23251 23274 23222 22984 22820 22736 22732 22522 22266 22125 21875 21847 21905 21792 21724 21531 21452 21289 21154 21132 21238 21257 21276 21289 21313 21333 21265 21155 20998 20958 20913 20813 20690 20636 20576 20494 20275 20038 19682 19477 19477 19477 19477 19477 18662 18596 18426 18244 18022 17969 17902 17723 17598 17413 17202 17011 16706 16557 16445 16148 15912 15671 15462 15325 15059 14787 14410 14393 14196 14163 14004 13767 13641 13559 13425 13198 13023 12850 12643 12585 12519 12274 12102 11935 11712 11619 11566 11365 11217 11063 10870 10895 10728 10786 10806 10820 10737 10661 10647
23291 23353 23292 23174 23173 23013 22954 22679 22508 22569 22646 22518 22498 22562 22545 22732 22845 22879 22933 22964 22969 22922 22974 22769 22666 23213 23213 23213 23213 23213 22673 22733 22807 22952 23023 23161 23260 23293 23253 23349 23422 23555 23640 23730 23712 23666 23675 23711 23668 23669 23740 23666 23661 23821 23869 23794 23827 23789 23854 23754 23685 23691 23646 23677 23801 23808 23911 23836 23800 23706 23734 23633 23541 23487 23478 23465 23525 23496 23514 23523 23469 23225 23071 22923 22713 22653 22583 22479 22298 22082 21971 21884 21920 21806 21796 21827 21737 21842 21876 21931 22076 22130 22210 22347 22528 22397 22387 22201 22109 22186 22307 22355 22310 22352 22429 22482 22607 22763 22957 23117 23213 23226 23253 23404 23485 23457 23487 23618 23677 23697 23613 23466 23404 23450 23377 23245 23141 23109 23115 23088 22970 22936 22902 22865 22806 22920 22987 23131 23177 23263 23309 23283 23274 23363 23418 23406 23472 23401 23284 23245 23268 23089 22929 22847 22771 22576 22386 22156 21881 21886 21933 21801 21739 21548 21420 21375 21263 21234 21304 21416 21440 21364 21364 21379 21301 21124 20985 20906 20856 20722 20683 20572 20580 20458 20275 19974 19606 19498 19498 19498 19498 19498 18686 18571 18408 18233 18043 17988 17890 17706 17530 17420 17217 16998 16807 16618 16395 16150 15933 15661 15451 15307 15057 14724 14454 14331 14173 14139 14013 13826 13605 13523 13329 13034 12832 12719 12548 12524 12431 12259 12058 11881 11753 11648 11640 11501 11256 11152 10934 10954 10869 10902 10993 10879 10830 10843 10775
23471 23399 23377 23297 23206 23170 22971 22803 22620 22617 22681 22635 22570 22561 22627 22687 22732 22786 22814 22881 22881 22908 22841 22749 22608 23204 23204 23204 23204 23204 22772 22839 22892 23000 23004 23175 23373 23341 23368 23437 23483 23589 23768 23820 23748 23712 23777 23815 23793 23746 23788 23785 23653 23740 23876 23779 23794 23803 23786 23773 23818 23726 23697 23806 23912 23862 23881 23841 23817 23739 23791 23690 23655 23585 23611 23623 23621 23552 23563 23534 23593 23286 23056 22952 22736 22642 22643 22580 22409 22289 22072 22071 22063 22017 22017 21891 21898 21990 22081 22172 22236 22262 22373 22452 22491 22446 22370 22221 22248 22286 22377 22383 22389 22462 22651 22630 22709 22986 23159 23309 23438 23425 23537 23568 23635 23697 23637 23696 23726 23762 23756 23590 23502 23382 23340 23319 23216 23176 23119 23126 23071 23076 23010 22855 22787 22971 23016 23193 23270 23406 23417 23430 23377 23401 23507 23475 23562 23472 23333 23282 23250 23049 22951 22819 22693 22593 22383 22209 22005 21984 21931 21893 21753 21593 21528 21337 21260 21334 21299 21401 21534 21445 21422 21361 21284 21208 21031 20936 20904 20809 20770 20684 20580 20504 20256 20011 19708 19505 19516 19516 19516 19516 19551 18414 18368 18240 18020 17962 17916 17744 17488 17371 17150 16869 16652 16447 16230 16092 15886 15634 15441 15358 15064 14848 14472 14373 14285 14139 14019 13805 13496 13352 13165 12960 12810 12628 12412 12282 12254 12083 11894 11810 11655 11693 11570 11496 11374 11211 11043 11029 11032 10983 11047 10999 10861 10862 10832
23558 23517 23357 23355 23301 23251 23102 22942 22673 22657 22729 22640 22662 22679 22586 22627 22637 22753 22791 22793 22756 22772 22739 22677 23161 23190 23190 23190 23190 23199 22916 22927 22876 22929 23036 23186 23416 23438 23375 23444 23589 23755 23805 23853 23860 23895 24006 24015 23912 23861 23828 23790 23647 23770 23868 23909 23847 23840 23801 23835 23834 23800 23797 23869 23946 23946 23885 23918 23832 23874 23830 23743 23701 23740 23776 23709 23677 23703 23702 23660 23675 23400 23167 23043 22840 22746 22679 22601 22423 22356 22236 22195 22138 22144 22122 21990 21940 22053 22251 22366 22435 22528 22597 22598 22518 22421 22340 22301 22291 22422 22534 22526 22548 22706 22749 22857 22874 23129 23267 23354 23556 23642 23705 23751 23763 23809 23791 23847 23793 23769 23777 23653 23518 23404 23343 23324 23220 23263 23247 23243 23233 23086 22992 22869 22824 22924 23008 23180 23355 23440 23553 23593 23521 23517 23580 23555 23570 23506 23386 23375 23249 23123 23030 22890 22704 22479 22351 22237 22097 22012 22025 21922 21867 21681 21619 21391 21222 21293 21370 21522 21560 21501 21507 21461 21396 21243 21052 20983 20953 20821 20790 20707 20685 20507 20347 20127 19784 19518 19532 19532 19532 19532 19546 19538 18213 18138 17981 17908 17920 17671 17472 17318 17103 16779 16558 16370 16090 15924 15782 15646 15551 15368 15147 14896 14613 14475 14315 14079 13904 13714 13437 13214 13116 12926 12663 12436 12292 12153 12108 11962 11767 11654 11622 11652 11562 11553 11421 11302 11188 11190 11263 11189 11118 11025 10968 10895 10795
23659 23545 23367 23339 23213 23140 23016 22874 22655 22655 22800 22713 22755 22678 22612 22669 22630 22722 22765 22754 22749 22754 22706 22585 23159 23175 23175 23175 23175 23187 22942 22959 23000 23036 23052 23212 23385 23443 23444 23513 23578 23633 23726 23801 23792 23842 23922 23919 23855 23777 23815 23687 23649 23731 23698 23702 23719 23677 23731 23798 23820 23864 23865 23991 24080 24006 23900 23895 23794 23810 23866 23867 23808 23877 23897 23808 23802 23812 23762 23802 23840 23498 23343 23186 22920 22884 22790 22725 22547 22473 22377 22309 22169 22107 22147 22085 21986 22034 22127 22350 22389 22522 22506 22556 22459 22388 22305 22213 22097 22221 22389 22464 22516 22678 22672 22723 22821 23002 23237 23380 23496 23476 23481 23532 23688 23740 23704 23751 23770 23717 23646 23430 23313 23286 23173 23195 23079 23078 23171 23096 22991 22811 22698 22637 22594 22695 22813 22954 23147 23276 23386 23382 23386 23444 23502 23432 23486 23418 23288 23265 23175 23042 22974 22847 22568 22354 22236 22111 22090 21960 21857 21735 21677 21557 21562 21408 21192 21341 21335 21393 21470 21440 21467 21452 21344 21217 21114 21039 21040 20908 20887 20824 20765 20537 20411 20122 19810 19526 19538 19537 19537 19537 19544 19535 18370 18235 18088 17947 17930 17695 17523 17311 17017 16731 16553 16301 16111 15916 15758 15650 15533 15255 15021 14829 14526 14449 14330 14154 13975 13800 13598 13324 13167 12918 12646 12505 12389 12240 12198 12055 11807 11713 11665 11620 11541 11445 11424 11312 11245 11275 11200 11217 11214 11132 10920 10909 10794
23672 23532 23487 23309 23249 23086 22972 22785 22517 22629 22752 22770 22732 22727 22761 22691 22684 22735 22795 22776 22656 22568 22557 23153 23155 23165 23165 23165 23167 23181 22850 23017 23083 23132 23101 23182 23317 23390 23391 23558 23648 23661 23602 23634 23731 23834 23855 23807 23678 23722 23859 23737 23719 23628 23577 23626 23624 23593 23597 23612 23700 23824 23903 23938 24093 24005 24031 23975 23877 23825 23872 23928 23890 23990 23974 23862 23803 23838 23822 23882 23923 23641 23476 23220 23013 22958 22984 22862 22772 22606 22539 22354 22146 22156 22190 22014 21927 22058 22092 22306 22400 22413 22491 22517 22504 22373 22172 22117 22003 22163 22371 22419 22529 22569 22541 22593 22719 22872 23095 23284 23430 23311 23310 23457 23524 23663 23697 23740 23749 23590 23429 23266 23171 23153 23080 23039 22995 22944 22995 22874 22790 22657 22520 22528 22438 22559 22643 22916 23064 23144 23104 23111 23176 23300 23298 23261 23284 23284 23180 23188 23195 23137 23013 22726 22512 22387 22181 22068 22074 21894 21702 21631 21456 21457 21391 21284 21269 21292 21331 21369 21288 21299 21428 21430 21405 21295 21147 21048 21019 20999 21007 20931 20745 20574 20501 20191 19935 19537 19546 19541 19537 19537 19537 19529 19515 18317 18178 18082 17881 17618 17479 17240 16972 16728 16556 16300 16101 15945 15710 15602 15526 15269 14999 14816 14526 14510 14412 14229 14102 13836 13646 13371 13190 12943 12750 12654 12457 12437 12295 12056 11935 11859 11743 11617 11451 11421 11429 11301 11286 11287 11184 11241 11205 11125 10960 10953 10852
23750 23598 23541 23390 23283 23168 23041 22828 22497 22655 22812 22771 22858 22909 22829 22735 22751 22715 22788 22662 22552 22527 22511 23158 23157 23159 23159 23159 23159 23172 22827 22945 23134 23218 23161 23287 23328 23364 23354 23474 23577 23618 23584 23623 23686 23722 23646 23715 23734 23740 23750 23764 23624 23601 23594 23555 23529 23575 23696 23674 23660 23765 23812 23902 24015 24022 24021 23896 23887 23861 23923 23981 24017 23938 24017 23934 23865 23852 23932 24055 24060 23697 23449 23348 23082 23070 23066 23003 22902 22645 22528 22406 22218 22298 22258 22151 21983 22131 22180 22274 22272 22278 22383 22370 22338 22299 22149 22136 21954 22059 22271 22382 22425 22464 22397 22573 22617 22862 22998 23084 23211 23137 23178 23293 23430 23509 23542 23586 23640 23433 23308 23204 23024 22959 22962 22931 22928 22878 22745 22655 22696 22452 22338 22283 22137 22340 22478 22744 22914 22958 22950 22923 22959 23057 23197 23227 23172 23086 23050 23056 23175 22990 22952 22723 22451 22223 22053 21989 21881 21815 21708 21538 21379 21346 21375 21236 21168 21227 21250 21308 21319 21305 21370 21280 21268 21193 21142 21031 21088 21010 21026 21018 20897 20706 20500 20134 19879 19740 19549 19541 19532 19532 19532 19523 19512 18288 18126 18017 17823 17611 17410 17170 16878 16739 16417 16177 16044 15946 15765 15598 15548 15333 15081 14830 14632 14464 14420 14261 14131 13931 13764 13469 13315 13040 12877 12779 12536 12390 12258 12038 11919 11861 11625 11491 11415 11457 11404 11364 11308 11226 11248 11274 11211 11090 10977 11011 11008
23810 23661 23639 23380 23230 23174 23009 22737 22560 22714 22783 22863 23002 23046 23004 22919 22886 22845 22767 22675 22499 22493 22459 23162 23159 23159 23159 23159 23156 22687 22839 23010 23198 23201 23185 23338 23367 23377 23384 23489 23504 23479 23476 23449 23521 23547 23522 23565 23667 23678 23749 23724 23657 23626 23565 23516 23556 23599 23706 23697 23746 23711 23798 23935 24027 23981 23944 23852 23879 23985 24075 24094 24026 23948 23981 23964 24037 23993 24052 24150 24133 23796 23544 23392 23142 23188 23136 22984 22917 22738 22565 22498 22410 22309 22255 22179 22086 22172 22148 22120 22195 22186 22178 22208 22267 22203 22152 22111 21952 22099 22164 22216 22319 22359 22366 22516 22600 22711 22839 23020 23109 23034 23049 23163 23213 23342 23380 23474 23483 23392 23240 23024 22931 22795 22788 22739 22809 22697 22587 22498 22478 22359 22266 22037 21911 22102 22309 22465 22644 22719 22725 22804 22813 22886 23067 23109 23187 23059 23023 23013 23050 22906 22847 22657 22430 22245 21993 21931 21808 21761 21612 21507 21299 21292 21275 21215 21148 21210 21268 21198 21248 21295 21333 21264 21214 21169 21035 21084 21056 21027 21110 21001 20996 20703 20495 20135 19844 19725 19545 19536 19526 19524 19524 19521 19511 19508 18070 17907 17767 17490 17309 17079 16901 16689 16392 16204 16012 15846 15742 15647 15586 15301 15143 14898 14641 14490 14320 14215 14195 13943 13814 13640 13414 13224 12959 12803 12701 12465 12280 12131 11911 11798 11635 11554 11434 11483 11485 11447 11323 11260 11258 11261 11150 11045 11054 11079 11118
23829 23653 23581 23456 23251 23236 23074 22878 22610 22814 22902 22955 22957 22891 22897 22881 22920 22818 22819 22632 22485 22510 23179 23168 23163 23163 23163 23158 23151 22747 22875 23062 23151 23211 23298 23303 23417 23361 23413 23326 23344 23465 23463 23396 23511 23488 23494 23603 23643 23665 23709 23674 23540 23528 23586 23607 23590 23627 23742 23776 23768 23848 23925 24038 24145 24192 24138 24079 23980 24069 24155 24233 24165 24196 24056 24068 24095 23969 23957 23987 24103 23888 23581 23487 23203 23148 23048 23060 22936 22758 22613 22585 22422 22370 22226 22091 21934 21934 22014 22111 22179 22072 22085 22160 22163 22127 22099 22083 21995 22091 22187 22221 22202 22224 22208 22446 22577 22711 22736 22863 23007 22940 22987 23051 23184 23306 23355 23453 23448 23324 23139 22983 22857 22754 22658 22593 22662 22569 22532 22422 22346 22274 22169 21974 21742 21990 22132 22262 22369 22433 22442 22578 22624 22775 22870 23000 23049 22948 22986 22925 22971 22896 22927 22636 22391 22186 22048 21847 21605 21522 21474 21332 21194 21199 21208 21216 21029 21025 21063 21034 20971 21063 21207 21171 21081 21068 21044 21101 21067 20967 20935 21001 20959 20733 20456 20245 19990 19851 19756 19531 19520 19514 19514 19514 19508 19504 18284 18013 17926 17567 17384 17111 16947 16727 16407 16202 16002 15885 15758 15631 15545 15315 15116 14960 14713 14557 14323 14251 14138 13921 13761 13602 13394 13201 13017 12969 12851 12594 12456 12186 12045 11919 11685 11624 11490 11426 11379 11456 11417 11433 11371 11275 11095 11146 11152 11092 11023
23848 23698 23572 23457 23259 23241 23098 22947 22754 22817 22911 22938 22925 22888 22794 22817 22867 22813 22764 22561 22480 22585 23181 23170 23167 23167 23167 23159 23148 22825 22961 23005 23104 23217 23291 23411 23413 23425 23382 23294 23196 23325 23409 23337 23379 23465 23434 23483 23607 23587 23598 23575 23489 23539 23671 23740 23727 23803 23876 23791 23823 23948 23984 24162 24350 24394 24321 24185 24078 24168 24179 24316 24418 24363 24234 24117 24107 23991 23974 23952 24059 23897 23659 23528 23326 23131 23056 23040 22907 22814 22726 22566 22381 22353 22265 22045 21813 21835 21813 21904 22091 22064 22027 22092 22085 22073 22132 22085 22010 22054 22129 22074 22021 22073 22131 22322 22434 22588 22730 22896 22965 22901 22891 22991 23180 23195 23310 23336 23334 23151 23003 22908 22714 22667 22507 22501 22464 22483 22412 22329 22289 22161 22011 21820 21610 21819 22030 22069 22205 22206 22239 22374 22471 22641 22705 22829 22841 22865 22892 22942 22931 22956 22886 22624 22465 22253 22100 21797 21507 21383 21309 21293 21209 21300 21269 21170 20997 20981 20872 20885 20803 20856 20972 20972 21017 20999 20954 20978 20997 20964 20886 20902 20876 20603 20387 20202 20092 19952 19803 19530 19517 19511 19505 19505 19502 19496 19484 18156 17962 17675 17430 17202 17011 16772 16497 16323 16077 15941 15829 15677 15531 15378 15212 14933 14701 14532 14445 14277 14060 13889 13637 13495 13468 13306 13080 13060 12979 12829 12584 12336 12160 12037 11815 11712 11539 11424 11388 11354 11396 11437 11389 11287 11144 11178 11143 11125 11017
23823 23589 23452 23276 23169 23100 23061 22979 22770 22815 22955 22994 22926 22893 22754 22819 22932 22738 22725 22648 22555 23188 23184 23177 23177 23177 23175 23165 22830 22940 23036 23124 23187 23193 23270 23352 23355 23359 23300 23241 23044 23160 23339 23333 23308 23346 23408 23569 23703 23680 23568 23555 23470 23600 23788 23800 23789 23809 23879 23800 23908 24108 24184 24245 24414 24500 24446 24311 24180 24261 24293 24400 24562 24392 24297 24235 24218 24095 24001 24058 24126 23944 23728 23567 23452 23266 23128 22996 22879 22842 22719 22541 22502 22396 22208 22000 21860 21818 21699 21871 21926 21911 21891 21984 22041 22048 22042 21963 22005 21974 22018 21917 21905 21933 22094 22169 22281 22457 22595 22820 22932 22911 22867 22997 23039 23074 23038 23073 23126 22941 22795 22727 22660 22515 22452 22487 22370 22336 22318 22276 22167 22060 21861 21755 21470 21691 21847 21854 21961 21982 22088 22267 22362 22472 22440 22511 22620 22740 22872 22972 23007 22930 22896 22646 22436 22275 21973 21777 21534 21354 21314 21170 21109 21218 21187 21066 21010 20960 20770 20757 20706 20742 20704 20799 20791 20758 20741 20798 20832 20862 20831 20936 20988 20673 20546 20387 20195 20057 19865 19691 19511 19507 19498 19498 19498 19494 19483 18230 17980 17752 17475 17249 16976 16742 16558 16272 16055 15945 15790 15679 15425 15349 15202 14902 14667 14576 14380 14234 13911 13840 13681 13589 13452 13338 13219 13146 13073 12868 12693 12518 12199 12060 11787 11734 11511 11452 11353 11379 11416 11339 11398 11303 11128 11149 11083 11101 11025
23826 23601 23434 23278 23102 23126 23072 23021 22859 22921 22877 22918 22888 22831 22781 22851 22901 22716 22616 22582 22565 23188 23184 23183 23183 23183 23181 23172 22834 22921 22996 23118 23204 23203 23249 23220 23237 23236 23207 23106 23011 23159 23203 23204 23223 23407 23475 23553 23723 23627 23558 23550 23555 23670 23790 23721 23773 23831 23766 23846 24016 24227 24357 24459 24484 24542 24475 24385 24310 24367 24523 24572 24621 24515 24400 24264 24250 24114 24103 24112 24135 23978 23699 23557 23460 23353 23145 23061 22960 22782 22637 22613 22556 22417 22159 22014 21783 21748 21676 21726 21796 21803 21784 21847 22001 21942 22008 21933 21939 21860 21870 21819 21845 21870 21995 22097 22203 22400 22550 22669 22813 22855 22872 22916 22947 22858 22845 22893 22990 22868 22695 22623 22574 22497 22402 22425 22347 22223 22204 22126 22134 21931 21823 21664 21453 21501 21637 21625 21643 21791 21886 22086 22250 22314 22269 22355 22446 22682 22803 22901 23010 22962 22855 22605 22474 22221 21949 21649 21461 21327 21316 21217 21027 21071 21110 21098 21036 20837 20742 20630 20546 20515 20478 20546 20568 20570 20624 20652 20784 20778 20786 20881 20994 20738 20590 20411 20192 20026 19963 19790 19631 19504 19491 19487 19487 19487 19476 19455 17928 17688 17503 17220 17031 16851 16638 16284 16048 15915 15722 15581 15384 15265 15119 14930 14747 14552 14429 14161 13885 13793 13653 13560 13488 13427 13276 13215 13050 12887 12799 12616 12329 12149 11846 11702 11612 11456 11409 11316 11316 11344 11332 11283 11189 11151 11132 11052 11096
23684 23586 23504 23342 23206 23100 23107 22993 22738 22747 22776 22828 22828 22809 22809 22825 22754 22655 22625 22693 22693 23190 23186 23186 23186 23186 23183 22850 22902 22858 22928 23081 23174 23101 23155 23204 23278 23337 23240 23160 22993 23046 23205 23162 23209 23381 23400 23522 23723 23669 23537 23598 23631 23691 23875 23888 23804 23843 23952 24052 24126 24340 24425 24558 24703 24705 24634 24562 24453 24386 24477 24563 24500 24397 24331 24324 24248 24194 24256 24150 24146 24021 23718 23582 23478 23362 23186 23049 22845 22677 22604 22582 22450 22283 22152 21882 21755 21698 21599 21645 21754 21802 21842 21849 22000 22097 22075 22059 21990 21857 21803 21781 21825 21869 21958 22047 22110 22195 22326 22523 22686 22790 22805 22839 22982 22839 22821 22848 22918 22800 22597 22539 22484 22441 22298 22268 22216 22254 22222 22131 22128 21919 21754 21512 21301 21448 21585 21664 21670 21787 21876 21970 22125 22135 22192 22230 22326 22530 22700 22702 22875 22748 22729 22495 22309 22038 21883 21663 21427 21360 21443 21344 21167 21254 21225 21201 21191 21060 20835 20738 20500 20498 20571 20664 20652 20677 20716 20755 20842 20790 20771 20864 20861 20710 20536 20346 20123 20017 19998 19881 19790 19502 19488 19478 19478 19478 19470 19448 17924 17689 17575 17298 17151 17007 16727 16384 16158 16031 15812 15600 15453 15363 15259 15029 14889 14721 14465 14329 14067 13937 13753 13766 13614 13484 13301 13228 13180 12970 12782 12574 12315 12135 12031 11831 11781 11603 11602 11477 11412 11423 11403 11393 11270 11238 11146 11237 11298
23618 23561 23449 23355 23276 23124 23064 22895 22705 22708 22783 22849 22840 22805 22714 22671 22692 22586 22532 22665 22745 23191 23189 23189 23189 23189 23186 22896 22954 22924 22865 22950 23072 23106 23175 23254 23362 23346 23270 23244 23102 23082 23178 23181 23305 23439 23448 23564 23612 23551 23502 23571 23664 23797 23882 23909 23961 24024 24165 24193 24145 24421 24578 24695 24834 24775 24702 24687 24594 24483 24490 24459 24489 24494 24384 24385 24345 24286 24299 24158 24081 24010 23842 23670 23496 23320 23131 22889 22762 22701 22661 22577 22429 22281 22130 21827 21646 21593 21552 21692 21782 21786 21799 21906 22008 22129 22140 21987 21961 21948 21829 21742 21693 21792 21887 21971 22017 22109 22230 22351 22549 22613 22629 22715 22895 22855 22723 22714 22826 22614 22522 22547 22455 22354 22264 22261 22163 22112 22118 22032 22001 21789 21705 21500 21233 21379 21454 21603 21670 21726 21823 21957 22049 22066 22192 22212 22246 22344 22501 22523 22674 22549 22541 22303 22161 21994 21928 21652 21500 21498 21484 21329 21266 21374 21358 21315 21261 21181 20976 20811 20543 20533 20605 20726 20803 20775 20819 20802 20814 20701 20697 20812 20809 20686 20589 20384 20125 20153 20108 19976 19907 19794 19482 19456 19456 19456 19456 19431 17962 17710 17535 17420 17295 17074 16775 16512 16212 16139 15964 15807 15572 15534 15384 15252 15048 14853 14579 14437 14305 14079 13955 13890 13700 13628 13450 13399 13277 12943 12730 12440 12273 12202 12143 12033 11880 11756 11710 11689 11550 11583 11558 11437 11408 11299 11268 11368 11386
23643 23559 23390 23392 23259 23182 23097 22894 22753 22628 22635 22675 22739 22766 22790 22711 22654 22501 22486 22617 22785 23190 23190 23190 23190 23190 23187 22812 22898 22852 22929 22920 23039 23095 23265 23270 23278 23283 23350 23335 23220 23239 23209 23135 23198 23303 23363 23455 23502 23534 23619 23719 23777 23884 23952 24022 24041 24225 24328 24318 24244 24433 24665 24814 24931 24732 24677 24669 24717 24597 24520 24566 24542 24451 24404 24382 24382 24330 24318 24237 24161 23985 23888 23741 23533 23342 23116 22983 22794 22653 22598 22514 22346 22208 22093 21837 21658 21611 21566 21722 21774 21761 21795 22028 22144 22198 22084 22094 22051 21984 21883 21893 21750 21836 21800 21889 22019 22071 22217 22325 22513 22498 22623 22683 22872 22811 22730 22749 22791 22692 22576 22500 22425 22371 22267 22247 22059 22019 22070 21949 21852 21624 21490 21274 21143 21253 21346 21486 21589 21652 21771 21780 21805 21927 22043 22015 22087 22253 22317 22389 22531 22516 22487 22292 22129 21932 21901 21695 21419 21483 21522 21422 21287 21408 21432 21357 21248 21035 20921 20715 20588 20578 20617 20709 20859 20862 20902 20819 20771 20759 20738 20746 20771 20717 20601 20419 20231 20252 20169 20023 19912 19697 19479 19440 19432 19432 19432 19416 19378 17929 17645 17619 17487 17157 16932 16627 16276 16104 15994 15760 15642 15535 15443 15250 15212 15002 14806 14580 14401 14257 14135 14086 13880 13811 13680 13576 13302 12963 12738 12474 12328 12273 12224 12140 11972 11928 11847 11844 11741 11629 11616 11542 11543 11499 11443 11420 11372
23596 23439 23406 23377 23352 23202 23167 22901 22764 22624 22613 22711 22700 22697 22748 22611 22562 22507 22559 22673 22726 23189 23189 23189 23189 23189 22778 22800 22916 22892 22913 23000 23008 23156 23255 23253 23297 23351 23454 23443 23373 23233 23202 23146 23218 23195 23281 23366 23382 23479 23643 23815 23921 23947 23992 24086 24212 24260 24375 24450 24448 24645 24718 24829 24951 24795 24768 24682 24716 24656 24612 24617 24519 24431 24448 24487 24492 24388 24383 24236 24184 24053 24032 23901 23667 23380 23201 22955 22780 22632 22555 22387 22342 22156 22085 21906 21742 21613 21598 21677 21705 21766 21848 22055 22194 22201 22136 22184 22129 22113 22035 21954 21770 21807 21731 21799 21940 22071 22104 22295 22484 22459 22529 22643 22774 22773 22743 22806 22779 22601 22535 22555 22456 22403 22274 22170 22069 22069 22001 21828 21769 21560 21334 21182 21148 21202 21277 21471 21572 21606 21596 21686 21690 21736 21784 21903 22041 22125 22189 22219 22373 22358 22328 22214 22045 21952 21854 21685 21464 21451 21522 21445 21378 21430 21430 21315 21263 21024 20899 20785 20725 20750 20669 20709 20856 20836 20867 20691 20632 20694 20748 20843 20815 20619 20506 20377 20271 20215 20166 20021 20004 19812 19476 19433 19417 19417 19417 19408 19369 18055 17873 17694 17592 17289 16986 16686 16421 16178 15964 15837 15715 15607 15410 15300 15268 15169 14963 14781 14620 14447 14358 14210 14133 14050 13885 13712 13417 13085 12870 12573 12352 12319 12180 12218 12134 11983 11959 11973 11879 11814 11756 11700 11599 11544 11543 11470 11424
23529 23530 23484 23347 23255 23119 23105 22927 22782 22789 22718 22748 22628 22667 22750 22698 22651 22624 22536 22618 22667 23187 23187 23187 23187 23187 22737 22821 22804 22785 22804 22819 22849 23043 23107 23107 23201 23270 23323 23329 23321 23321 23336 23308 23205 23305 23403 23355 23369 23531 23645 23835 23932 23972 24026 24111 24261 24335 24488 24492 24554 24649 24766 24857 25037 24900 24830 24659 24553 24548 24602 24493 24460 24469 24457 24461 24430 24318 24315 24210 24159 24011 23942 23723 23487 23286 23083 22905 22833 22598 22414 22304 22272 22183 22045 21904 21690 21695 21601 21559 21646 21790 21852 22039 22130 22145 22101 21953 21895 21860 21904 21834 21671 21671 21764 21752 21750 21912 22044 22236 22346 22426 22411 22472 22636 22620 22656 22767 22748 22589 22402 22389 22441 22339 22279 22165 22169 21995 21893 21863 21834 21558 21288 21232 21042 21176 21177 21342 21431 21468 21636 21639 21659 21732 21778 21857 21959 21968 22056 22158 22247 22249 22226 22052 21967 21834 21797 21565 21434 21343 21432 21346 21297 21327 21395 21262 21211 21049 21038 20924 20838 20831 20759 20815 20856 20775 20838 20730 20622 20614 20738 20842 20855 20666 20554 20399 20326 20222 20175 20086 19932 19765 19508 19416 19384 19384 19384 19384 19352 18096 17927 17856 17752 17499 17139 16879 16522 16403 16206 16095 16005 15793 15544 15412 15369 15198 15048 14962 14748 14678 14520 14349 14324 14181 14028 13787 13592 13236 13033 12754 12514 12431 12338 12221 12104 11977 11918 11995 12009 11866 11740 11717 11567 11605 11582 11522 11480
23491 23534 23452 23338 23181 23121 22973 22903 22718 22790 22765 22710 22555 22599 22726 22792 22737 22666 22538 22599 22680 23185 23185 23185 23185 23185 22685 22727 22697 22628 22624 22717 22814 22927 22988 22996 23061 23224 23283 23309 23306 23296 23352 23310 23297 23340 23415 23476 23450 23579 23663 23879 24002 24077 24070 24168 24390 24460 24600 24585 24568 24729 24907 24919 25003 24953 24857 24657 24519 24449 24484 24474 24430 24403 24485 24431 24477 24319 24175 24187 24120 23961 23731 23553 23414 23144 22999 22871 22851 22625 22371 22246 22189 22053 21886 21743 21693 21680 21681 21560 21566 21752 21829 21894 22017 21992 22009 21864 21777 21701 21650 21667 21630 21666 21715 21710 21641 21875 22030 22036 22134 22262 22346 22438 22494 22566 22572 22620 22669 22504 22385 22365 22332 22318 22298 22170 22159 22083 21881 21856 21854 21605 21340 21241 21034 21092 21181 21338 21402 21454 21583 21546 21621 21712 21851 21928 21969 21931 21966 22071 22148 22116 22152 22027 21837 21801 21650 21445 21348 21253 21223 21143 21144 21146 21236 21203 21265 21169 21086 21060 21035 21059 20959 20901 20776 20747 20686 20660 20549 20616 20673 20723 20779 20786 20686 20513 20368 20304 20126 19995 19932 19695 19476 19408 19376 19367 19367 19367 19342 19304 18028 17974 17864 17631 17417 17074 16752 16584 16409 16314 16196 15890 15670 15573 15412 15266 15221 15122 14948 14806 14558 14507 14435 14299 14164 13999 13715 13422 13135 12868 12599 12534 12426 12227 12113 12099 11983 11977 12037 11885 11743 11746 11658 11643 11542 11532 11631
23574 23509 23417 23297 23180 23121 22920 22960 22866 22861 22778 22698 22566 22582 22749 22750 22738 22587 22493 22520 23195 23186 23186 23186 23186 23183 22643 22628 22596 22613 22605 22662 22742 22774 22811 22924 22978 23156 23300 23298 23376 23377 23506 23373 23415 23358 23393 23470 23441 23560 23595 23772 24018 24070 24207 24373 24499 24540 24616 24623 24739 24777 24876 24853 24917 24875 24884 24624 24510 24489 24567 24451 24470 24482 24417 24424 24432 24273 24107 24142 24039 23922 23723 23574 23358 23146 22913 22843 22815 22520 22365 22284 22130 21901 21746 21663 21586 21556 21620 21621 21534 21605 21754 21875 21919 21913 21913 21777 21740 21630 21592 21508 21564 21525 21531 21541 21593 21737 21862 21890 21995 21988 22046 22120 22244 22319 22402 22560 22659 22464 22358 22438 22376 22306 22311 22270 22236 22035 21933 21926 21843 21640 21343 21192 20964 21103 21152 21328 21447 21399 21358 21493 21548 21553 21699 21816 21819 21823 21930 21978 22082 22002 21961 21808 21730 21595 21478 21366 21234 21199 21126 21144 21140 21145 21091 21213 21215 21177 21202 21145 21135 21069 20998 20823 20708 20769 20714 20565 20532 20538 20554 20629 20715 20707 20683 20523 20481 20317 20252 20084 19958 19857 19663 19395 19360 19330 19330 19330 19321 19280 18135 18022 17953 17774 17510 17238 16979 16828 16629 16541 16345 16041 15860 15675 15578 15463 15454 15216 15146 15017 14813 14694 14539 14348 14159 13919 13712 13426 13187 12877 12692 12557 12360 12312 12164 12088 12024 12113 12080 11982 11776 11716 11714 11697 11675 11605 11640
23602 23550 23454 23279 23075 23081 22961 22938 22891 22816 22814 22675 22586 22603 22729 22752 22696 22573 22518 22560 23198 23188 23188 23188 23188 23181 22623 22578 22568 22522 22514 22567 22644 22697 22708 22754 22872 23061 23277 23393 23470 23558 23541 23520 23410 23367 23321 23395 23358 23433 23522 23689 23941 24188 24404 24546 24625 24627 24614 24762 24835 24795 24838 24852 24955 24894 24791 24655 24530 24591 24582 24480 24490 24402 24336 24391 24373 24179 24097 24027 23987 23834 23723 23528 23394 23147 22931 22838 22692 22507 22390 22201 22029 21817 21660 21542 21494 21540 21610 21581 21532 21629 21773 21891 21919 21912 21825 21687 21632 21523 21408 21454 21398 21378 21369 21444 21457 21632 21735 21765 21836 21857 21783 21923 21974 22139 22217 22396 22551 22507 22400 22423 22355 22308 22377 22311 22242 22061 21892 21830 21772 21620 21420 21230 21008 21170 21215 21314 21368 21367 21253 21370 21361 21483 21558 21616 21700 21822 21883 21935 22082 21950 21820 21753 21575 21373 21296 21210 21227 21174 21137 21068 21022 21080 21013 21094 21197 21245 21192 21145 21224 21025 20921 20799 20751 20750 20664 20548 20455 20429 20488 20466 20566 20525 20602 20480 20480 20477 20358 20236 20004 19908 19752 19646 19343 19299 19299 19299 19299 19266 18205 18133 18081 17786 17615 17403 17136 16939 16794 16645 16483 16296 16072 15869 15752 15689 15568 15389 15231 15090 14979 14761 14648 14353 14132 13941 13833 13564 13354 12982 12663 12460 12304 12268 12183 12169 12161 12150 12032 11973 11813 11769 11778 11824 11813 11783 11743
23458 23407 23367 23215 23059 22978 22893 22785 22778 22833 22876 22720 22701 22728 22847 22778 22778 22658 22573 22648 23200 23192 23192 23192 23192 23181 22720 22704 22609 22659 22614 22621 22632 22733 22803 22836 23022 23147 23263 23395 23502 23512 23480 23543 23559 23537 23444 23490 23560 23628 23764 23876 24059 24206 24214 24355 24428 24492 24594 24800 24872 24894 24883 24899 24926 24829 24886 24828 24687 24662 24722 24659 24544 24495 24407 24362 24255 24225 24166 24088 23996 23740 23679 23439 23355 23180 22980 22909 22833 22639 22410 22256 22108 21889 21826 21684 21621 21582 21609 21635 21538 21644 21784 21864 21946 21806 21710 21633 21608 21540 21496 21483 21365 21385 21323 21448 21469 21587 21647 21677 21757 21717 21784 21848 21894 22088 22220 22242 22411 22292 22236 22329 22404 22359 22376 22227 22188 21964 21868 21669 21601 21533 21324 21146 21035 21080 21250 21241 21280 21231 21232 21274 21287 21260 21347 21434 21560 21691 21754 21846 21946 21819 21770 21678 21513 21461 21365 21343 21270 21225 21133 21086 20986 20932 20966 20991 21076 21127 21104 21129 21054 20943 20815 20752 20561 20651 20636 20475 20414 20469 20552 20595 20528 20439 20430 20379 20289 20287 20243 20147 19990 19870 19743 19562 19334 19289 19266 19266 19266 19243 19198 18074 18018 17798 17665 17412 17233 17035 16878 16645 16514 16297 16115 15904 15823 15698 15663 15488 15305 15149 15063 14915 14741 14515 14228 14086 13905 13557 13336 13100 12825 12616 12477 12465 12339 12302 12336 12229 12150 12131 12007 11945 11863 11871 11813 11801 11845
23402 23390 23308 23159 22971 22864 22862 22757 22700 22730 22848 22738 22728 22809 22864 22913 22845 22801 22676 22679 23197 23195 23195 23195 23195 23183 22785 22762 22765 22806 22780 22694 22674 22716 22777 22934 23110 23212 23233 23311 23440 23447 23439 23500 23632 23680 23617 23585 23672 23794 23984 24084 24214 24139 24145 24217 24312 24371 24528 24777 24925 24940 25008 24923 24934 24841 24877 24846 24803 24840 24752 24709 24574 24504 24440 24274 24237 24124 24126 24047 23923 23674 23511 23345 23232 23141 23115 22973 22881 22632 22430 22230 22132 22026 21985 21895 21682 21630 21576 21579 21613 21655 21752 21868 21978 21832 21664 21673 21600 21626 21536 21535 21461 21396 21389 21472 21446 21456 21513 21571 21675 21711 21845 21817 21847 22066 22161 22167 22258 22232 22181 22232 22354 22309 22276 22134 22059 21921 21774 21591 21519 21446 21256 21209 21062 21114 21161 21242 21218 21205 21258 21226 21104 21123 21164 21276 21300 21568 21719 21773 21868 21824 21718 21555 21403 21394 21364 21350 21238 21231 21157 21031 20839 20954 21048 20974 21023 20970 20959 20978 20959 20768 20610 20587 20470 20552 20600 20482 20456 20499 20641 20648 20611 20476 20379 20299 20211 20172 20146 20068 19893 19762 19621 19435 19160 19266 19225 19225 19225 19225 19184 18144 18072 17865 17602 17450 17396 17115 16884 16749 16544 16365 16194 16020 15932 15862 15780 15553 15454 15209 15038 14932 14839 14666 14382 14147 13851 13599 13317 13102 12885 12760 12704 12566 12520 12507 12532 12425 12317 12309 12275 12159 11956 11893 11921 11951 11956
23288 23250 23135 23095 22934 22826 22729 22666 22583 22666 22794 22734 22834 22754 22835 22803 22741 22650 22623 22762 23190 23190 23190 23190 23190 22705 22691 22730 22794 22736 22698 22634 22606 22705 22831 23025 23195 23303 23333 23322 23513 23472 23496 23599 23739 23773 23691 23736 23790 23967 24093 24129 24202 24215 24114 24224 24317 24351 24527 24721 24910 24938 24963 25022 24944 25004 24934 24865 24894 24788 24721 24696 24525 24493 24455 24347 24299 24239 24107 24033 23961 23770 23567 23396 23272 23077 23046 22953 22983 22713 22562 22395 22231 22063 21959 21885 21738 21699 21561 21619 21605 21700 21787 21922 22079 21874 21707 21686 21615 21571 21479 21395 21411 21314 21244 21326 21394 21449 21487 21546 21659 21686 21701 21844 21956 22110 22191 22191 22206 22242 22210 22165 22209 22164 22074 21909 21870 21813 21620 21586 21466 21497 21354 21166 21084 21073 21066 21106 21054 21145 21178 21034 20988 21066 21086 21187 21204 21364 21506 21589 21629 21635 21544 21425 21325 21336 21334 21268 21259 21197 21036 20927 20878 20867 20974 20950 20956 20932 20927 20834 20824 20676 20491 20434 20387 20450 20520 20473 20570 20519 20642 20650 20643 20591 20489 20343 20172 20164 20150 20033 19958 19729 19613 19331 19182 19253 19214 19207 19207 19207 19179 19159 18185 17976 17640 17556 17508 17246 16971 16796 16562 16447 16245 16218 16091 15981 15820 15728 15518 15290 15107 14924 14781 14560 14373 14163 13949 13668 13485 13265 13020 12862 12885 12723 12586 12642 12579 12571 12597 12538 12393 12297 12197 12060 12051 12061 11926
23118 22987 22934 22900 22846 22735 22630 22615 22517 22630 22769 22737 22821 22785 22714 22746 22746 22689 22663 22781 23188 23182 23182 23182 23182 23144 22689 22783 22808 22791 22744 22702 22608 22788 22945 23047 23185 23295 23318 23337 23466 23566 23612 23687 23817 23788 23815 23900 23908 24094 24191 24265 24234 24175 24114 24118 24215 24349 24572 24667 24810 24872 24917 25010 25048 25059 25079 24921 24875 24754 24584 24613 24518 24461 24509 24453 24350 24279 24178 24047 23906 23786 23572 23376 23228 23105 23036 22978 22975 22809 22717 22552 22276 22208 22040 21831 21668 21658 21524 21598 21631 21676 21815 21956 22129 21935 21736 21673 21587 21434 21317 21239 21290 21228 21222 21222 21292 21326 21342 21454 21540 21641 21665 21816 21940 22004 22145 22183 22162 22153 22129 22188 22141 22054 21844 21758 21708 21654 21491 21559 21518 21470 21376 21172 20991 20994 21044 20923 20918 20948 21016 20951 20888 20950 21040 21141 21131 21244 21325 21304 21402 21385 21355 21270 21151 21259 21257 21264 21221 21168 21005 20886 20880 20819 20846 20907 20893 20898 20890 20797 20810 20640 20445 20415 20335 20493 20541 20498 20581 20617 20589 20610 20690 20519 20477 20241 20053 20039 20110 20092 19985 19813 19516 19280 19129 19224 19192 19180 19180 19180 19173 19158 18222 18008 17779 17629 17544 17342 17158 16930 16594 16485 16312 16312 16227 16128 15967 15781 15682 15442 15189 15046 14787 14624 14450 14195 14066 13785 13600 13399 13100 13038 13033 12876 12713 12660 12697 12734 12792 12728 12557 12483 12373 12353 12255 12140 11989
22863 22854 22784 22790 22863 22750 22659 22631 22589 22637 22682 22715 22638 22647 22617 22566 22590 22562 22617 22712 23185 23165 23165 23165 23165 23133 22675 22783 22799 22735 22729 22675 22700 22820 22939 23012 23219 23241 23292 23378 23416 23498 23681 23716 23899 23863 23912 23980 24065 24141 24229 24299 24318 24230 24104 24102 24105 24241 24474 24517 24694 24766 24787 24872 24965 25047 25081 25002 24833 24721 24706 24651 24584 24582 24579 24462 24327 24222 24132 24049 23913 23729 23555 23393 23242 23124 23073 23107 23062 22897 22757 22507 22282 22064 21922 21847 21735 21725 21654 21688 21807 21801 21991 22028 22123 22023 21892 21830 21731 21595 21356 21276 21376 21316 21354 21271 21268 21290 21357 21474 21648 21605 21638 21796 21843 22001 22201 22115 22107 22063 22001 21981 22004 21955 21816 21727 21663 21650 21512 21498 21479 21448 21283 21075 21005 21061 21024 20894 20847 20962 20989 21000 20933 20975 20903 20920 21016 21141 21186 21211 21263 21215 21220 21175 21040 21151 21188 21166 21228 21213 21058 20994 20863 20826 20809 20763 20803 20869 20829 20862 20896 20675 20452 20422 20348 20435 20562 20484 20646 20700 20669 20701 20677 20491 20323 20151 19964 19959 19932 19883 19832 19754 19533 19307 19204 19008 19184 19172 19172 19172 19172 19161 18227 17995 17859 17660 17477 17403 17267 16962 16679 16590 16425 16295 16198 16129 15986 15915 15757 15540 15249 15091 14979 14673 14499 14332 14114 13874 13619 13437 13178 13192 13082 12861 12740 12807 12796 12794 12892 12769 12636 12595 12424 12374 12331 12143 11969
22693 22740 22762 22720 22773 22730 22570 22557 22553 22528 22584 22556 22547 22555 22451 22481 22537 22573 22596 22572 23174 23153 23141 23141 23141 23120 23102 22653 22711 22769 22800 22705 22682 22791 22953 22997 23134 23219 23260 23402 23486 23566 23652 23818 24034 24028 23970 24078 24122 24264 24320 24358 24319 24232 24165 24121 24074 24247 24384 24439 24490 24592 24743 24901 24950 25023 25043 24945 24847 24819 24775 24640 24550 24541 24581 24458 24377 24248 24100 23994 23978 23819 23566 23381 23240 23239 23139 23095 23073 22972 22803 22542 22225 21989 21868 21854 21753 21826 21842 21886 21866 21956 22106 22198 22187 22099 21995 21858 21756 21633 21425 21344 21356 21372 21438 21378 21344 21454 21491 21526 21672 21636 21660 21757 21847 21941 22144 22202 22140 22009 21940 21911 21834 21756 21663 21568 21601 21526 21491 21447 21463 21309 21203 21089 20993 20993 20878 20854 20832 20934 20982 20914 20915 20871 20834 20872 20891 20996 21040 21052 21055 21001 21065 21003 21009 21101 21108 21214 21239 21256 21181 21045 20957 20889 20790 20740 20796 20844 20818 20872 20874 20709 20586 20436 20249 20303 20481 20475 20594 20661 20691 20661 20546 20447 20247 20050 19901 19839 19859 19827 19769 19652 19528 19439 19255 19051 19170 19164 19173 19173 19173 19175 19202 18085 17871 17656 17533 17411 17261 17046 16862 16687 16580 16462 16226 16106 16041 16025 15899 15679 15364 15214 15070 14748 14535 14380 14103 13861 13746 13455 13273 13272 13166 12932 12815 12867 12898 12902 12913 12784 12613 12613 12517 12459 12358 12138 11961
22561 22694 22724 22667 22736 22612 22595 22466 22475 22511 22475 22455 22473 22460 22525 22500 22507 22537 22596 22527 23168 23147 23128 23128 23128 23114 23096 22755 22639 22657 22654 22692 22669 22749 22829 22954 23006 23047 23160 23294 23511 23556 23672 23881 24082 24082 24031 24090 24174 24194 24244 24379 24396 24249 24165 24104 24125 24209 24352 24438 24446 24582 24694 24903 24985 25080 25051 25020 24841 24896 24854 24732 24617 24613 24599 24421 24253 24136 24057 24015 24044 23874 23647 23437 23358 23283 23199 23111 22995 22926 22744 22458 22199 22091 21957 21906 21739 21867 21888 21856 21963 22059 22140 22192 22199 22117 21941 21786 21705 21636 21535 21522 21524 21532 21464 21459 21499 21516 21472 21585 21750 21724 21756 21748 21923 22024 22135 22081 22120 22029 21800 21772 21678 21569 21524 21446 21490 21457 21464 21500 21462 21269 21199 21116 20997 20991 20917 20848 20830 20904 20860 20864 20801 20830 20770 20836 20865 20899 20930 20995 20940 20922 20993 20960 20993 21014 21094 21115 21197 21117 21103 21075 20987 20881 20724 20693 20791 20757 20781 20795 20844 20670 20628 20457 20278 20472 20553 20582 20550 20655 20603 20568 20497 20409 20168 20112 19956 19846 19878 19822 19778 19610 19557 19367 19239 19036 18973 19161 19185 19185 19185 19185 19217 18074 17941 17695 17578 17504 17316 17072 16937 16775 16716 16572 16384 16259 16137 16048 15911 15691 15571 15365 15163 14915 14672 14375 14153 13942 13675 13498 13378 13243 13198 13073 13006 12924 12920 12927 12923 12866 12780 12740 12591 12576 12436 12201 11991
22500 22547 22577 22608 22641 22529 22495 22445 22465 22411 22480 22530 22484 22425 22473 22547 22518 22535 22529 22502 22480 23133 23109 23105 23105 23105 23088 23074 22680 22695 22614 22532 22538 22621 22732 22761 22906 23001 23154 23298 23452 23546 23708 23897 24058 24095 24075 24146 24230 24250 24218 24376 24418 24363 24216 24221 24179 24192 24309 24353 24427 24537 24735 24888 25090 25062 25088 25011 24879 24886 24926 24900 24797 24730 24596 24381 24181 24135 24057 24051 23990 23774 23657 23557 23446 23388 23316 23131 22995 22853 22689 22485 22272 22158 21943 21828 21797 21893 21869 21925 21970 22006 22097 22164 22172 22049 21939 21761 21706 21711 21752 21653 21576 21519 21489 21585 21570 21520 21520 21591 21706 21778 21727 21809 21989 22058 22137 22116 22137 21987 21758 21741 21601 21530 21448 21354 21288 21267 21314 21404 21441 21346 21298 21239 21109 21101 21022 20957 20849 20844 20772 20775 20688 20685 20663 20775 20764 20795 20854 20818 20759 20873 20900 20930 20890 21058 21113 21195 21259 21151 21090 20968 20892 20886 20758 20766 20806 20821 20710 20757 20792 20701 20575 20510 20418 20508 20569 20573 20557 20554 20635 20620 20567 20401 20173 20032 19949 19905 19859 19797 19734 19607 19579 19450 19233 19072 18918 19161 19201 19213 19213 19213 19245 19300 17966 17753 17638 17472 17383 17218 17102 16969 16871 16593 16424 16296 16193 16069 16031 15834 15748 15443 15241 14984 14748 14433 14197 13916 13727 13613 13506 13326 13243 13164 13083 13041 12956 13024 13062 13050 12914 12859 12736 12616 12460 12354 12147
22466 22520 22513 22518 22650 22442 22389 22268 22281 22335 22379 22350 22352 22276 22303 22339 22411 22348 22380 22403 22469 23127 23103 23096 23096 23096 23086 23074 22566 22522 22532 22591 22645 22655 22796 22902 23105 23152 23163 23283 23499 23517 23614 23878 24105 24046 24037 24225 24356 24268 24277 24357 24448 24321 24157 24198 24090 24111 24141 24246 24315 24432 24664 24741 24997 24925 24802 24727 24700 24793 24740 24788 24685 24596 24458 24329 24141 24062 24039 23965 23799 23637 23533 23391 23324 23260 23150 23062 22970 22794 22604 22399 22285 22075 21873 21750 21668 21806 21883 21918 21997 22054 22038 22102 22060 21961 21831 21745 21717 21748 21726 21607 21562 21460 21461 21501 21436 21471 21514 21607 21557 21602 21683 21840 22069 22125 22075 22073 22201 21988 21766 21618 21532 21511 21382 21319 21348 21205 21186 21270 21362 21193 21175 21074 21098 20931 20877 20904 20821 20850 20750 20711 20723 20753 20725 20809 20862 20857 20783 20740 20734 20854 20838 20777 20819 20916 20959 21079 21194 21086 20996 20922 20747 20752 20702 20690 20650 20662 20540 20544 20601 20532 20547 20475 20397 20410 20437 20409 20384 20500 20505 20480 20483 20419 20233 20167 19953 19996 19891 19851 19850 19718 19558 19521 19400 19285 19105 19167 19218 19258 19258 19258 19271 19324 18099 18003 17816 17683 17509 17395 17286 17141 16999 16739 16558 16459 16298 16175 16057 15937 15822 15671 15415 15299 15068 14681 14463 14196 13954 13918 13827 13553 13344 13306 13110 13159 13111 13024 13001 12985 12887 12848 12751 12724 12616 12481 12253
22447 22412 22414 22463 22568 22445 22232 22179 22152 22162 22209 22174 22105 22156 22154 22210 22179 22179 22232 22272 22431 22543 23091 23083 23081 23081 23081 23070 23064 22543 22573 22621 22683 22805 22922 23118 23196 23297 23285 23343 23421 23491 23646 23880 24119 24153 24106 24213 24374 24416 24448 24424 24458 24275 24151 24077 24109 24113 24045 24158 24211 24322 24467 24618 24817 24747 24632 24646 24594 24649 24625 24579 24470 24481 24432 24222 24020 23939 23981 23814 23663 23482 23287 23189 23121 23032 22989 23021 22945 22717 22459 22334 22323 22133 21830 21674 21636 21664 21785 21907 22069 22095 22038 21987 21962 21852 21819 21762 21780 21646 21574 21551 21534 21491 21411 21416 21398 21477 21533 21538 21515 21633 21727 21927 22062 22100 22039 22143 22145 22000 21758 21685 21548 21516 21391 21361 21306 21266 21157 21249 21218 21141 21117 21010 21029 20884 20817 20873 20842 20779 20606 20605 20723 20728 20702 20716 20856 20818 20711 20669 20600 20779 20848 20710 20660 20823 20870 20991 21031 20977 20858 20729 20605 20646 20650 20604 20580 20577 20478 20522 20530 20430 20447 20396 20354 20317 20338 20314 20298 20334 20420 20439 20521 20412 20380 20214 20049 20098 20025 19958 19954 19794 19661 19621 19566 19471 19322 19208 19231 19284 19284 19284 19284 19337 18200 18125 17983 17869 17762 17660 17445 17301 17122 16893 16680 16510 16451 16259 16170 16076 15961 15840 15683 15485 15265 14979 14672 14424 14282 14132 14033 13836 13538 13409 13200 13142 13178 13046 13028 13051 12987 12862 12828 12691 12674 12593 12403
22424 22406 22439 22427 22502 22336 22218 22135 21995 21991 21992 21969 22028 21981 22008 22051 22116 22228 22283 22268 22315 22419 23081 23076 23068 23068 23068 23063 23055 22718 22711 22761 22817 22935 23023 23097 23263 23418 23456 23447 23517 23587 23731 23870 24074 24066 24118 24301 24456 24434 24385 24385 24446 24377 24191 24152 24043 24028 24084 24177 24141 24312 24475 24608 24837 24688 24535 24574 24486 24547 24481 24394 24298 24287 24295 24187 24070 24010 23903 23628 23457 23280 23123 23127 23103 23088 23001 22896 22911 22684 22458 22328 22237 22117 21887 21767 21700 21730 21730 21874 21961 21996 21935 21972 21895 21802 21715 21731 21734 21699 21562 21604 21490 21518 21441 21434 21415 21432 21479 21536 21462 21534 21672 21911 22017 22067 22030 22173 22296 22106 21895 21733 21607 21497 21431 21325 21361 21266 21217 21143 21116 21097 20968 20963 20904 20782 20778 20808 20676 20615 20566 20566 20651 20635 20743 20812 20815 20784 20731 20638 20666 20799 20826 20682 20631 20783 20921 20964 20993 20880 20733 20523 20401 20415 20502 20449 20456 20475 20471 20502 20483 20428 20396 20310 20303 20297 20204 20220 20184 20204 20306 20392 20500 20402 20335 20322 20127 20211 20117 20173 20154 19954 19850 19773 19803 19648 19523 19405 19259 19337 19337 19337 19337 19363 18400 18183 18062 17835 17753 17722 17627 17370 17109 16967 16747 16587 16604 16371 16268 16074 15984 15959 15815 15561 15422 15277 15016 14756 14588 14391 14165 14049 13731 13517 13352 13315 13276 13097 13080 13005 12995 12998 12976 12837 12804 12621 12419
22338 22336 22372 22303 22323 22192 22159 21979 21800 21717 21732 21781 21859 21896 21912 21924 21964 22126 22221 22302 22263 22342 23079 23074 23062 23062 23062 23060 23051 22754 22868 22877 22964 23011 23058 23202 23311 23485 23561 23581 23588 23705 23804 23916 24107 24150 24181 24251 24430 24351 24346 24385 24338 24357 24264 24107 23941 23976 24048 24137 24164 24275 24359 24514 24731 24622 24535 24531 24415 24382 24257 24199 24209 24260 24224 24183 24084 23926 23808 23575 23347 23232 23086 23003 22971 23025 22960 22827 22761 22618 22391 22321 22263 22113 21857 21842 21708 21674 21727 21801 21942 21884 21907 21823 21780 21757 21627 21656 21631 21637 21558 21571 21493 21444 21472 21406 21311 21391 21437 21492 21447 21563 21718 21941 22040 22059 22137 22222 22375 22106 21939 21771 21654 21593 21434 21383 21361 21214 21177 21191 21113 20985 20836 20790 20731 20751 20741 20718 20590 20601 20486 20584 20622 20613 20664 20778 20849 20728 20640 20600 20628 20683 20732 20635 20637 20731 20867 20920 20878 20741 20633 20437 20309 20354 20426 20443 20444 20457 20522 20552 20480 20389 20260 20240 20230 20182 20126 20180 20174 20233 20281 20352 20444 20407 20417 20387 20234 20322 20284 20217 20245 20146 19996 19944 19932 19850 19700 19460 19274 19364 19364 19364 19364 19377 18478 18249 18087 17887 17801 17738 17772 17463 17159 16947 16752 16694 16653 16536 16353 16224 16086 16051 16016 15749 15583 15495 15289 15028 14784 14572 14335 14249 14048 13808 13568 13377 13270 13158 13153 13104 13128 13110 13162 12976 12851 12706 12479
22245 22215 22224 22260 22178 22129 22006 21867 21687 21661 21696 21698 21798 21843 21837 21826 21893 21989 22035 22146 22231 22320 22362 23071 23058 23048 23048 23048 23040 23019 22722 22891 22962 22942 23074 23204 23284 23457 23498 23549 23534 23698 23782 23892 24057 24038 24112 24179 24325 24256 24202 24305 24326 24326 24246 24111 24063 24111 24077 24218 24235 24262 24289 24474 24557 24540 24495 24445 24261 24307 24209 24169 24111 24220 24195 24101 23936 23785 23631 23488 23358 23128 22977 22951 22887 22903 22818 22714 22568 22529 22376 22250 22093 22007 21854 21714 21665 21694 21722 21772 21823 21792 21807 21715 21666 21598 21535 21628 21556 21623 21573 21569 21443 21435 21327 21322 21223 21325 21397 21443 21370 21477 21655 21801 21996 22053 22125 22302 22398 22088 21894 21806 21689 21611 21478 21387 21378 21214 21204 21146 21124 20938 20894 20786 20711 20728 20757 20724 20652 20603 20497 20606 20703 20702 20610 20649 20738 20668 20547 20575 20518 20632 20609 20518 20503 20627 20740 20759 20722 20617 20412 20351 20205 20231 20287 20219 20278 20432 20487 20436 20491 20342 20330 20308 20202 20195 20179 20275 20323 20317 20446 20389 20503 20407 20448 20384 20394 20319 20368 20323 20313 20142 20075 19973 19887 19828 19640 19565 19422 19406 19406 19406 19406 19406 18427 18304 18103 17985 17889 17867 17827 17598 17386 17136 16917 16911 16857 16772 16624 16418 16245 16130 16134 15912 15734 15696 15489 15192 14915 14760 14639 14418 14277 13962 13693 13539 13492 13370 13304 13245 13211 13155 13161 13014 12890 12763 12567
22122 22105 22157 22166 22050 21920 21732 21650 21633 21673 21691 21677 21656 21696 21741 21709 21698 21796 21866 21976 22089 22158 22262 23069 23054 23039 23039 23039 23034 23013 22652 22818 22874 22972 23069 23222 23341 23459 23460 23449 23396 23583 23648 23803 23946 23968 24115 24218 24250 24270 24176 24231 24256 24288 24278 24197 24108 24112 24043 24237 24339 24263 24262 24315 24417 24451 24363 24271 24194 24272 24235 24122 24125 24108 24100 23979 23757 23695 23513 23445 23267 23095 22989 22969 22886 22739 22643 22576 22406 22347 22308 22146 21961 21929 21785 21710 21521 21574 21623 21727 21826 21770 21619 21652 21569 21567 21553 21556 21536 21561 21593 21494 21374 21321 21247 21256 21258 21254 21296 21310 21405 21421 21553 21755 21878 22000 22144 22350 22438 22204 21966 21875 21736 21718 21592 21472 21388 21233 21167 21161 21061 20963 20977 20839 20734 20675 20668 20683 20635 20650 20555 20635 20710 20694 20660 20641 20690 20625 20442 20432 20522 20555 20464 20489 20426 20418 20507 20573 20609 20431 20244 20145 20165 20110 20167 20125 20196 20274 20396 20410 20464 20397 20314 20270 20184 20214 20187 20321 20362 20469 20540 20483 20506 20514 20406 20478 20539 20379 20335 20359 20262 20155 20044 20011 19894 19817 19668 19500 19441 19471 19471 19471 19471 19471 18469 18322 18078 18050 17931 17880 17947 17736 17604 17428 17179 17057 17044 16906 16831 16657 16519 16339 16145 16098 16000 15885 15700 15495 15169 15077 14919 14661 14504 14253 13912 13818 13754 13543 13414 13391 13323 13323 13278 13152 12952 12739 12600
21977 21989 21952 21893 21836 21653 21541 21532 21477 21489 21461 21469 21448 21494 21602 21667 21621 21700 21850 21882 22042 22131 22138 22281 23046 23020 23020 23020 23020 23004 22688 22799 22989 23023 23193 23228 23277 23310 23410 23371 23295 23433 23668 23793 23951 23957 24061 24128 24213 24191 24160 24191 24169 24146 24174 24122 24072 24036 24051 24188 24389 24261 24272 24317 24269 24261 24299 24134 24094 24134 24089 24020 24021 24013 23976 23829 23694 23560 23408 23318 23171 23084 22908 22853 22756 22646 22484 22451 22278 22160 22104 22019 21822 21876 21822 21644 21571 21563 21589 21735 21706 21651 21646 21592 21571 21604 21545 21589 21555 21489 21475 21335 21255 21190 21148 21133 21190 21263 21343 21322 21294 21448 21532 21668 21734 22003 22151 22258 22377 22202 22110 21976 21876 21728 21640 21589 21532 21355 21226 21177 21085 20995 20848 20797 20628 20726 20700 20691 20758 20713 20661 20686 20656 20698 20684 20636 20609 20455 20295 20345 20410 20290 20235 20298 20258 20254 20267 20363 20469 20281 20167 20079 20039 19998 20058 20178 20136 20155 20318 20340 20380 20284 20303 20229 20226 20241 20250 20387 20449 20574 20646 20619 20619 20519 20464 20497 20577 20512 20366 20308 20337 20162 20066 20005 19882 19879 19802 19708 19614 19502 19502 19502 19502 19502 18671 18376 18143 18165 18078 18014 18051 17800 17724 17550 17362 17245 17215 17093 17045 16810 16607 16445 16350 16188 16126 15972 15877 15690 15414 15230 15124 14873 14640 14342 14076 13950 13818 13637 13472 13391 13378 13359 13304 13141 13058 12818 12725
21880 21874 21833 21636 21543 21542 21431 21371 21334 21315 21299 21261 21249 21359 21474 21526 21653 21764 21818 21889 21912 21974 22107 22192 23040 23005 23005 23005 23005 23000 22664 22770 23001 23082 23247 23324 23306 23251 23324 23311 23263 23408 23639 23737 23916 23941 24092 24195 24260 24282 24233 24253 24163 24161 24098 24089 24111 24109 24146 24229 24314 24270 24256 24217 24217 24174 24161 24099 23937 23948 24033 24014 23877 23822 23809 23682 23628 23465 23248 23151 22983 22911 22858 22767 22720 22613 22436 22408 22258 22138 21973 21878 21806 21808 21767 21656 21540 21670 21678 21679 21615 21536 21560 21608 21594 21494 21459 21520 21484 21477 21398 21246 21102 21081 21138 21185 21231 21267 21279 21344 21305 21415 21452 21569 21679 21991 22177 22253 22433 22353 22183 22036 21952 21789 21722 21625 21591 21507 21365 21207 21096 20950 20820 20742 20627 20745 20794 20859 20878 20718 20658 20700 20693 20602 20591 20559 20408 20316 20270 20252 20262 20120 20101 20192 20193 20172 20153 20191 20308 20203 20025 19994 19988 20044 20069 20155 20143 20151 20233 20187 20256 20208 20238 20325 20388 20446 20387 20397 20492 20645 20677 20621 20645 20614 20649 20622 20689 20520 20401 20318 20351 20214 20159 20030 19950 19918 19955 19822 19740 19552 19565 19565 19565 19565 19646 18595 18308 18231 18170 18209 18131 17882 17724 17599 17458 17401 17302 17255 17180 17006 16793 16662 16490 16402 16380 16223 16086 15828 15628 15421 15268 15016 14720 14513 14240 14134 13921 13789 13605 13567 13411 13367 13275 13136 13123 12934 12777
21800 21763 21759 21593 21580 21605 21461 21391 21379 21365 21336 21262 21306 21453 21573 21606 21673 21852 21919 21987 22030 22033 22185 22382 22969 22992 22992 22992 22992 23000 22702 22783 22863 22926 23054 23104 23187 23134 23202 23174 23124 23318 23518 23599 23747 23805 23884 24002 24078 24157 24225 24145 24004 24022 24025 23956 23895 24000 24005 24076 24144 24112 24138 24221 24252 24168 24158 24018 23931 23954 23955 23859 23756 23676 23645 23606 23571 23357 23237 23024 22863 22813 22678 22593 22499 22434 22315 22295 22124 22075 21891 21790 21749 21729 21594 21587 21478 21562 21541 21610 21536 21448 21441 21437 21508 21370 21396 21328 21235 21225 21107 20943 20854 20896 20955 21062 21127 21225 21202 21104 21120 21266 21352 21473 21467 21750 21974 22174 22288 22205 22047 21901 21825 21667 21596 21494 21501 21384 21328 21169 21092 20939 20776 20738 20578 20575 20609 20710 20762 20593 20597 20487 20509 20503 20363 20304 20205 20105 20094 20110 20106 20035 20051 20038 20078 20126 20139 20146 20157 20097 20056 20022 20051 20114 20127 20240 20264 20191 20235 20220 20224 20204 20306 20430 20435 20552 20556 20484 20623 20743 20784 20771 20850 20835 20779 20712 20602 20586 20421 20327 20213 20132 20050 19950 19952 19915 19843 19736 19746 19571 19596 19596 19596 19596 19659 18522 18387 18255 18107 18184 18155 17950 17754 17673 17529 17423 17400 17267 17187 17026 16848 16750 16594 16514 16457 16355 16219 15912 15739 15485 15311 15023 14773 14525 14234 14121 14067 13885 13763 13606 13487 13370 13284 13202 13053 12941 12796
21847 21731 21692 21639 21690 21647 21602 21515 21333 21299 21350 21377 21468 21597 21705 21727 21815 21900 21999 21982 22070 22195 22289 22430 22966 22980 22980 22980 22980 22990 22668 22637 22617 22766 22821 22954 23039 23141 23117 23129 23101 23271 23362 23505 23584 23598 23717 23811 23949 24043 24097 24080 23949 23923 23931 23908 23808 23880 23827 23927 24012 23989 24021 24091 24175 24172 24063 23985 23869 23819 23769 23624 23551 23492 23476 23487 23455 23285 23223 23033 22753 22672 22525 22369 22255 22148 22163 22180 22081 22033 21914 21845 21685 21592 21466 21412 21451 21494 21477 21542 21511 21402 21395 21398 21345 21248 21215 21001 20905 20863 20916 20787 20617 20747 20898 20990 21035 21074 21030 20987 21009 21193 21277 21317 21366 21498 21696 21959 22107 21952 21849 21807 21746 21648 21507 21454 21419 21289 21237 21074 21007 20892 20705 20703 20612 20605 20495 20534 20547 20499 20476 20390 20422 20307 20153 20117 20093 20037 20033 19973 19963 20035 20016 19893 19863 19902 20008 20024 20079 20035 20004 20066 20086 20021 20072 20178 20379 20244 20224 20190 20223 20327 20486 20476 20537 20578 20632 20582 20635 20766 20821 20822 20948 20866 20830 20644 20584 20595 20500 20285 20152 20128 19996 20009 19988 19937 19835 19712 19690 19588 19629 19629 19629 19629 19671 18526 18351 18300 18125 18073 18104 17927 17876 17723 17568 17472 17425 17351 17239 17096 16857 16814 16699 16635 16471 16415 16241 15960 15791 15574 15293 14975 14736 14519 14355 14238 14175 14004 13799 13675 13477 13292 13178 13162 13101 12904 12806
21963 21797 21733 21726 21659 21580 21577 21534 21454 21508 21591 21631 21696 21800 21837 21784 21862 21942 22077 22164 22215 22265 22233 22416 22957 22968 22968 22968 22968 22987 22698 22542 22495 22535 22650 22823 22945 22939 23026 23021 23009 23110 23221 23366 23394 23431 23574 23630 23810 23892 23909 23895 23970 23901 23952 23807 23684 23690 23700 23794 23854 23951 23994 24093 24116 24031 24035 23902 23836 23732 23690 23509 23385 23338 23340 23385 23295 23233 23123 22969 22697 22475 22360 22199 22121 21987 21940 21911 21871 21756 21706 21628 21468 21392 21298 21274 21356 21353 21465 21512 21408 21252 21220 21164 21194 21010 20998 20860 20702 20690 20741 20630 20441 20514 20708 20898 20984 20888 20923 20819 20791 21031 21139 21193 21373 21421 21580 21776 21965 21760 21671 21689 21584 21444 21416 21358 21310 21198 21078 21021 20884 20785 20682 20658 20559 20487 20394 20349 20336 20407 20404 20390 20353 20264 20114 20088 20019 20011 19943 19975 19950 19952 19901 19783 19736 19866 19918 19923 20039 20049 20065 20040 20111 20172 20165 20219 20377 20275 20233 20321 20357 20368 20562 20503 20528 20549 20655 20612 20638 20694 20781 20943 21013 20917 20809 20696 20628 20588 20537 20370 20188 20083 19938 19942 20003 19884 19751 19757 19695 19612 19656 19656 19656 19656 19674 18609 18315 18288 18251 18155 18139 18038 18015 17783 17679 17551 17434 17419 17327 17148 16966 16889 16779 16706 16531 16333 16245 16043 15847 15661 15390 15133 14837 14606 14456 14252 14170 13967 13885 13722 13587 13308 13229 13070 12942 12829 12710
22067 21859 21753 21654 21673 21651 21616 21540 21500 21652 21718 21831 21887 21841 21879 21892 22006 22090 22143 22180 22248 22312 22283 22933 22953 22957 22957 22957 22961 22980 22607 22515 22418 22463 22536 22690 22832 22783 22840 22917 23035 23087 23122 23132 23192 23209 23332 23398 23588 23735 23817 23816 23905 23822 23865 23709 23670 23648 23685 23757 23744 23743 23859 23991 24147 24026 23935 23933 23889 23760 23570 23450 23317 23289 23267 23285 23216 23080 23015 22887 22707 22401 22204 22092 21890 21830 21696 21648 21666 21549 21431 21388 21332 21236 21184 21209 21203 21341 21362 21400 21345 21201 21117 21011 20968 20796 20708 20591 20545 20553 20459 20373 20341 20411 20548 20708 20813 20780 20712 20689 20561 20778 20956 21104 21263 21375 21415 21653 21787 21682 21523 21484 21353 21264 21288 21167 21143 21149 21047 20968 20782 20736 20606 20542 20523 20492 20343 20222 20195 20295 20310 20239 20296 20153 20017 19892 19874 19853 19844 19868 19879 19815 19696 19712 19711 19766 19723 19782 19878 20019 20067 20126 20179 20223 20236 20308 20428 20403 20303 20331 20434 20483 20534 20572 20578 20647 20676 20585 20605 20685 20868 20960 21009 20829 20747 20716 20717 20638 20473 20322 20201 20026 19978 19928 19977 19824 19714 19645 19683 19658 19668 19668 19668 19668 19674 18626 18359 18329 18358 18338 18196 18151 18035 17895 17748 17560 17482 17455 17318 17116 16973 16923 16858 16692 16467 16348 16228 16074 15877 15696 15489 15178 14925 14794 14590 14372 14190 14008 13951 13730 13596 13369 13166 12981 12802 12681 12676
22126 22048 21957 21795 21850 21774 21738 21649 21626 21694 21766 21881 21914 21952 21925 21963 22071 22135 22143 22254 22338 22269 22303 22923 22944 22944 22944 22944 22957 22539 22520 22391 22373 22461 22524 22694 22772 22752 22750 22808 22893 22982 23107 23058 23129 23199 23267 23439 23584 23638 23711 23768 23878 23846 23905 23771 23765 23709 23696 23688 23651 23775 23836 23993 24174 24044 23892 23865 23794 23716 23473 23393 23313 23218 23195 23184 23069 23021 22900 22746 22607 22330 22072 21946 21670 21584 21459 21486 21502 21399 21334 21272 21097 21080 21008 20944 20933 20994 21097 21194 21142 21054 21001 20893 20798 20767 20666 20582 20477 20383 20301 20162 20172 20265 20445 20572 20676 20601 20619 20533 20518 20614 20778 20938 21161 21231 21277 21520 21645 21551 21426 21324 21205 21172 21138 21056 21011 20927 20915 20837 20695 20542 20466 20440 20445 20358 20306 20235 20217 20266 20382 20348 20352 20123 20011 19934 19831 19912 19932 19825 19772 19700 19680 19715 19696 19690 19755 19839 19837 19953 20079 20115 20186 20375 20451 20424 20505 20516 20433 20432 20533 20504 20575 20503 20480 20566 20667 20691 20689 20747 20916 21062 21015 20885 20843 20738 20685 20605 20564 20338 20221 20129 20027 20033 19908 19825 19716 19689 19624 19654 19667 19667 19667 19674 19681 18610 18318 18275 18359 18225 18170 18082 17979 17982 17883 17711 17648 17572 17475 17362 17182 17109 17016 16772 16556 16355 16219 16038 15846 15665 15525 15240 14995 14765 14648 14393 14185 14079 14005 13760 13687 13470 13263 13088 12872 12738 12665
22129 22108 22066 21973 21981 21896 21845 21755 21655 21774 21855 21924 21954 22012 22079 22165 22194 22238 22237 22318 22357 22339 22364 22907 22923 22923 22923 22923 22949 22368 22321 22321 22302 22391 22543 22596 22702 22657 22681 22680 22802 22898 23092 23066 23117 23233 23230 23316 23501 23538 23675 23794 23921 23820 23842 23819 23786 23715 23710 23702 23600 23716 23793 23935 24164 23961 23869 23834 23719 23628 23449 23279 23217 23108 23057 22956 22924 22797 22779 22691 22545 22213 21975 21747 21567 21479 21344 21359 21349 21192 21116 21104 20984 20817 20769 20757 20766 20766 20865 21010 21043 20885 20813 20753 20732 20621 20594 20422 20356 20220 20126 19957 19880 20087 20242 20325 20469 20549 20537 20432 20352 20479 20642 20779 20937 21089 21174 21354 21441 21349 21336 21199 21134 21119 21042 20914 20885 20822 20744 20666 20584 20494 20418 20403 20268 20309 20238 20307 20277 20385 20400 20382 20389 20219 19976 19947 19797 19857 19905 19859 19751 19758 19736 19684 19729 19793 19770 19782 19815 19929 20013 20129 20304 20430 20544 20591 20570 20522 20576 20527 20539 20580 20516 20455 20423 20580 20628 20630 20731 20897 21031 21105 21073 21026 20879 20807 20730 20594 20554 20381 20281 20215 20188 20088 19968 19855 19681 19630 19615 19644 19659 19659 19659 19674 19684 18564 18265 18250 18247 18168 18054 18001 18025 18037 17945 17822 17785 17744 17629 17482 17345 17177 17106 16850 16674 16475 16158 15968 15834 15698 15607 15384 15058 14794 14621 14406 14297 14257 14143 13876 13680 13467 13292 13053 12926 12870 12730
22254 22253 22221 22161 22111 21955 21823 21774 21712 21791 21815 21987 22066 22120 22194 22359 22443 22362 22421 22422 22444 22364 22315 22898 22909 22909 22909 22909 22944 22271 22331 22220 22181 22385 22543 22523 22637 22635 22702 22760 22750 22899 23023 22969 23107 23111 23154 23344 23467 23514 23693 23722 23790 23782 23692 23700 23734 23615 23595 23568 23604 23655 23847 23925 24063 23839 23777 23674 23666 23544 23363 23152 23032 22970 22923 22900 22821 22738 22628 22497 22424 22136 21903 21628 21464 21397 21204 21201 21083 20970 20830 20848 20712 20659 20636 20594 20596 20611 20742 20768 20828 20792 20671 20743 20713 20626 20615 20442 20419 20299 20151 19962 19732 19938 20140 20192 20373 20428 20446 20327 20368 20424 20626 20747 20826 20951 21117 21213 21294 21192 21147 21000 20937 20949 20988 20873 20820 20777 20630 20568 20502 20458 20370 20347 20219 20274 20234 20213 20139 20310 20337 20291 20302 20191 20084 19986 19878 19855 19927 19862 19751 19727 19704 19704 19797 19690 19708 19728 19812 19968 20046 20247 20337 20572 20711 20757 20718 20674 20628 20580 20678 20719 20635 20509 20385 20456 20506 20608 20667 20863 21017 21011 21078 21031 20964 20887 20795 20556 20466 20390 20214 20182 20180 20078 19955 19825 19814 19579 19600 19627 19635 19635 19642 19669 19686 18499 18224 18189 18216 18102 17986 17992 18022 18039 17995 17865 17780 17732 17638 17480 17397 17204 17144 16848 16613 16368 16213 16080 15857 15744 15627 15297 15084 14882 14705 14538 14385 14274 14106 13969 13738 13650 13516 13252 12988 12830 12613
22404 22371 22286 22249 22155 22001 21870 21772 21706 21753 21850 21970 22144 22273 22294 22473 22567 22588 22616 22513 22447 22428 22806 22875 22875 22875 22875 22898 22209 22198 22242 22232 22139 22281 22418 22534 22591 22637 22701 22748 22771 22908 22963 22928 22990 23095 23089 23289 23419 23482 23615 23706 23733 23682 23631 23633 23648 23618 23525 23616 23630 23680 23817 23852 23961 23797 23726 23627 23536 23310 23160 22996 22882 22917 22897 22738 22693 22639 22597 22407 22296 22032 21789 21599 21354 21264 21118 20951 20803 20740 20656 20533 20428 20468 20416 20412 20413 20545 20555 20603 20595 20614 20559 20616 20734 20598 20520 20505 20380 20203 20072 19916 19644 19779 20017 20126 20154 20251 20288 20215 20259 20347 20542 20628 20726 20850 21054 21142 21201 21170 21070 20897 20770 20779 20875 20900 20811 20735 20534 20506 20408 20293 20234 20169 20152 20148 20148 20070 20105 20158 20241 20269 20343 20198 20104 20021 19882 19842 19840 19901 19850 19841 19751 19767 19750 19714 19735 19816 19871 19980 20184 20345 20477 20581 20760 20910 20956 20938 20801 20734 20760 20749 20638 20510 20351 20351 20458 20614 20661 20790 20953 21007 21107 21079 20944 20858 20758 20525 20365 20303 20120 20123 20140 20042 19968 19902 19838 19561 19583 19610 19610 19610 19635 19664 18690 18468 18254 18195 18220 18109 17951 17984 17984 18068 18046 17933 17817 17768 17745 17544 17424 17330 17118 16852 16554 16405 16231 16045 15819 15623 15523 15319 15049 14902 14825 14716 14576 14346 14176 14090 13909 13809 13621 13292 13050 12879 12592
22394 22308 22350 22151 22041 21972 21810 21844 21804 21925 21959 22078 22247 22285 22376 22517 22625 22589 22551 22583 22502 22437 22806 22852 22852 22852 22852 22868 22086 22071 22099 22083 22086 22103 22220 22264 22314 22340 22387 22527 22559 22659 22684 22706 22731 22813 22912 22942 23060 23202 23375 23486 23580 23498 23464 23517 23518 23517 23532 23562 23530 23647 23854 23866 23878 23692 23602 23544 23400 23164 22955 22737 22602 22707 22695 22597 22443 22357 22284 22127 22047 21874 21715 21491 21221 21088 20982 20924 20751 20655 20635 20595 20444 20445 20343 20302 20407 20352 20386 20471 20522 20468 20420 20511 20528 20464 20314 20225 20227 20078 19882 19785 19564 19777 19850 19874 19995 20060 20145 20123 20150 20228 20382 20414 20556 20699 20918 20974 21023 20914 20986 20869 20714 20744 20733 20687 20548 20574 20415 20387 20340 20255 20186 20143 20020 20014 20014 20022 20004 20013 20057 20121 20145 19980 19948 19835 19750 19811 19864 19851 19864 19839 19761 19800 19718 19694 19788 19824 19927 20000 20175 20353 20452 20521 20694 20854 20949 20918 20834 20853 20780 20687 20572 20453 20370 20443 20501 20650 20754 20841 20856 21012 21095 20948 20774 20695 20680 20470 20313 20182 20137 20024 20049 19929 19911 19732 19523 19546 19568 19577 19577 19592 19616 19645 18512 18298 18129 18095 18077 17980 17899 17951 17959 18007 17984 18002 17940 17820 17771 17532 17441 17290 17141 16823 16589 16337 16154 15964 15793 15519 15456 15303 14993 14903 14733 14508 14381 14137 14006 13873 13787 13584 13452 13297 13034 12863 12562
22315 22290 22322 22157 22053 21987 21868 21832 21888 21969 22095 22269 22437 22403 22488 22532 22662 22578 22612 22692 22652 22535 22806 22797 22797 22797 22797 22793 21986 22074 22083 22052 22014 22038 21987 22100 22163 22174 22174 22318 22417 22377 22420 22417 22511 22624 22622 22736 22800 22993 23147 23291 23395 23305 23232 23354 23407 23466 23414 23443 23546 23648 23767 23829 23795 23614 23458 23392 23218 23042 22789 22609 22450 22434 22437 22301 22139 22005 21999 21939 21883 21752 21539 21293 21132 21057 20926 20767 20700 20671 20578 20590 20521 20475 20309 20238 20276 20264 20186 20290 20324 20331 20378 20331 20340 20224 20060 19984 20031 19925 19748 19680 19608 19709 19708 19771 19879 19883 19927 19944 19985 20085 20240 20300 20481 20681 20806 20845 20780 20735 20788 20743 20617 20546 20483 20379 20397 20383 20274 20216 20270 20111 20021 20003 19931 19903 19921 19873 19854 19865 19891 19955 19904 19867 19859 19802 19663 19759 19778 19854 19887 19754 19731 19713 19814 19814 19864 19931 19962 20113 20235 20406 20499 20575 20638 20815 20916 20950 20919 20853 20798 20711 20505 20332 20280 20347 20494 20667 20798 20759 20837 20874 20992 20861 20693 20546 20506 20441 20274 20201 20082 19920 19854 19842 19728 19618 19517 19539 19553 19553 19553 19575 19598 18657 18442 18158 17956 17941 17938 17832 17838 17842 17813 17884 17938 17974 17960 17920 17761 17581 17494 17279 17110 16831 16650 16388 16147 15933 15670 15436 15275 15220 15045 14779 14599 14424 14180 14031 13836 13751 13560 13429 13340 13180 12936 12732 12458
22205 22238 22196 22173 22084 22074 21953 22057 22059 22200 22255 22321 22527 22444 22523 22579 22574 22579 22611 22666 22577 22541 22806 22767 22731 22731 22731 22706 22622 21917 21948 21959 21877 21898 21899 21945 21974 22066 22086 22040 22163 22203 22291 22279 22343 22396 22521 22483 22537 22678 22846 23097 23195 23195 23117 23223 23258 23270 23281 23367 23516 23580 23547 23625 23608 23568 23367 23262 23101 22931 22679 22403 22280 22253 22181 22125 21989 21858 21781 21684 21629 21542 21427 21187 21045 20998 20859 20701 20558 20519 20557 20524 20493 20432 20307 20208 20188 20103 20066 20125 20062 20108 20131 20204 20199 20063 19950 19860 19892 19788 19624 19571 19504 19481 19554 19620 19705 19756 19784 19856 19870 19968 20165 20215 20250 20518 20673 20705 20629 20648 20628 20582 20524 20539 20428 20383 20297 20234 20066 20102 20166 20017 19937 19935 19837 19748 19793 19788 19769 19728 19734 19709 19750 19645 19671 19613 19612 19636 19726 19828 19806 19720 19721 19700 19783 19789 19866 19904 20046 20148 20348 20492 20542 20497 20543 20671 20919 20838 20776 20690 20662 20665 20563 20437 20417 20466 20456 20609 20782 20718 20730 20834 20945 20845 20563 20508 20427 20386 20273 20215 20067 19903 19834 19688 19591 19484 19504 19525 19532 19532 19546 19568 19590 18515 18290 18057 17884 17836 17872 17871 17792 17830 17810 17923 17949 17965 17865 17807 17682 17566 17318 17166 17058 16830 16577 16280 16110 15877 15710 15458 15161 15041 14893 14593 14353 14149 14058 13868 13700 13668 13521 13280 13212 13049 12840 12536 12371
22209 22180 22160 22205 22132 22060 22100 22132 22171 22342 22426 22430 22543 22557 22449 22498 22603 22557 22613 22674 22621 22629 22806 22751 22697 22680 22680 22644 22592 22551 21923 21878 21791 21764 21815 21803 21786 21826 21900 21834 21872 22006 22134 22187 22147 22201 22300 22300 22268 22480 22590 22835 22973 22946 22896 22916 23056 23100 23174 23337 23415 23461 23427 23441 23508 23456 23323 23221 23030 22747 22497 22280 22174 22124 22052 21907 21816 21668 21549 21393 21320 21319 21305 21155 21065 20921 20843 20614 20432 20498 20452 20425 20404 20294 20274 20158 20025 19941 19970 19931 19845 19832 19869 19940 20027 19929 19844 19828 19802 19709 19584 19494 19413 19373 19400 19504 19564 19615 19555 19626 19783 19934 20044 20090 20141 20266 20454 20517 20581 20473 20427 20404 20498 20406 20270 20273 20165 20134 19983 19973 20037 19993 19833 19722 19720 19707 19593 19627 19685 19694 19633 19610 19583 19476 19444 19487 19472 19529 19553 19738 19821 19722 19702 19736 19691 19738 19874 19934 20079 20284 20378 20466 20463 20452 20527 20621 20800 20703 20663 20593 20617 20633 20542 20537 20442 20452 20464 20599 20738 20786 20743 20911 20955 20792 20553 20408 20282 20332 20343 20257 20162 19989 19834 19594 19446 19469 19490 19503 19503 19510 19531 19551 18705 18490 18182 18072 17889 17829 17777 17815 17727 17789 17825 17904 17959 17945 17883 17764 17603 17462 17260 17108 16908 16660 16431 16248 16081 15814 15657 15417 15171 15033 14786 14452 14175 14000 13825 13678 13549 13495 13390 13164 13043 12929 12747 12442 12227
22259 22266 22196 22207 22218 22147 22129 22135 22221 22332 22481 22554 22614 22596 22495 22531 22662 22602 22682 22641 22533 22510 22573 22714 22660 22629 22629 22629 22578 22536 21841 21793 21776 21779 21719 21686 21672 21719 21740 21748 21740 21803 21928 21957 22039 22075 22091 22088 22118 22277 22483 22539 22633 22649 22709 22785 22896 22948 23089 23198 23237 23267 23388 23404 23491 23361 23274 23111 22891 22599 22395 22280 22089 22008 21964 21856 21743 21569 21424 21299 21151 21114 20963 20903 20792 20675 20611 20460 20360 20431 20395 20251 20234 20189 20084 19908 19772 19858 19928 19810 19759 19707 19714 19764 19801 19651 19623 19572 19601 19594 19568 19487 19329 19400 19457 19500 19568 19687 19652 19714 19692 19913 20067 20130 20046 20203 20258 20309 20357 20356 20309 20362 20399 20287 20073 20055 19992 19986 19826 19834 19796 19736 19635 19572 19649 19537 19569 19528 19527 19482 19520 19511 19584 19540 19415 19446 19399 19476 19577 19781 19864 19847 19763 19786 19843 19885 19886 20022 20137 20246 20387 20488 20651 20609 20667 20689 20800 20702 20718 20643 20597 20643 20641 20591 20460 20514 20519 20671 20710 20667 20688 20773 20856 20721 20525 20394 20369 20320 20234 20182 20024 19871 19647 19515 19443 19463 19483 19483 19483 19497 19517 18770 18642 18452 18243 18134 17933 17818 17770 17721 17659 17731 17885 17900 17945 17926 17764 17682 17463 17286 17186 17011 16788 16581 16246 16139 15912 15637 15504 15315 15157 14909 14676 14349 14053 13950 13828 13621 13515 13426 13223 13153 12976 12834 12681 12478 12210
22343 22209 22190 22217 22218 22215 22214 22280 22328 22452 22533 22537 22664 22715 22649 22625 22705 22684 22659 22622 22529 22543 22609 22695 22642 22611 22583 22583 22551 22510 22484 21775 21820 21730 21712 21633 21663 21634 21646 21684 21716 21767 21844 21876 21892 21866 21934 21935 21963 22103 22273 22253 22348 22525 22640 22720 22738 22824 22880 22909 23063 23140 23278 23285 23378 23281 23099 22860 22647 22532 22349 22188 22114 21944 21811 21697 21640 21443 21221 21126 20925 20870 20734 20618 20604 20543 20407 20328 20328 20336 20288 20201 20055 20084 19992 19782 19541 19609 19782 19743 19777 19689 19567 19628 19564 19494 19425 19447 19452 19430 19484 19391 19224 19289 19464 19597 19659 19754 19731 19768 19706 19831 19978 20074 20051 20012 20088 20135 20257 20207 20236 20204 20212 20149 20001 19904 19882 19761 19690 19552 19540 19420 19422 19498 19483 19443 19494 19414 19442 19445 19366 19388 19515 19505 19468 19387 19396 19431 19577 19772 19916 19934 19868 19956 19930 19933 20010 20156 20307 20316 20392 20595 20725 20801 20868 20922 20892 20754 20725 20728 20674 20703 20668 20632 20532 20538 20516 20632 20636 20630 20530 20574 20703 20621 20449 20380 20338 20227 20214 20016 19919 19750 19547 19445 19437 19457 19464 19464 19464 19484 19504 18678 18559 18386 18249 18111 18043 17924 17785 17683 17614 17741 17859 17918 17857 17817 17761 17616 17452 17240 17041 16889 16655 16395 16136 15957 15747 15512 15390 15278 15138 14891 14694 14412 14042 13973 13844 13715 13483 13283 13176 13062 12893 12774 12580 12330 12088
22323 22288 22288 22365 22330 22368 22365 22435 22444 22552 22676 22781 22805 22850 22776 22844 22811 22771 22699 22667 22571 22512 22591 22464 22606 22578 22551 22526 22526 22485 22460 22436 21801 21653 21731 21624 21650 21522 21554 21633 21611 21621 21730 21831 21779 21770 21787 21743 21727 21923 21994 21970 22101 22286 22349 22528 22604 22556 22628 22811 22882 22972 22989 23196 23290 23096 22917 22683 22487 22405 22308 22145 22073 21862 21669 21532 21469 21203 21062 20957 20710 20733 20562 20501 20404 20335 20268 20199 20276 20158 20156 20117 19974 19919 19778 19601 19391 19490 19572 19544 19580 19613 19484 19482 19380 19304 19168 19193 19211 19295 19326 19247 19193 19338 19505 19646 19677 19656 19796 19759 19657 19760 19849 19920 20025 20035 19977 19956 20069 20121 20083 20069 20015 19884 19856 19704 19638 19577 19477 19373 19367 19269 19310 19369 19317 19373 19438 19337 19356 19345 19278 19306 19374 19407 19402 19371 19399 19478 19618 19717 19856 20008 20054 20094 20036 20104 20139 20232 20344 20435 20436 20623 20772 20884 20891 20910 21042 20969 20882 20876 20857 20758 20662 20560 20524 20511 20505 20531 20515 20488 20515 20564 20654 20528 20370 20285 20296 20213 20086 19933 19882 19707 19461 19387 19427 19446 19446 19446 19446 19477 18499 18527 18463 18266 18188 18112 18037 17981 17821 17698 17634 17668 17786 17795 17817 17688 17514 17501 17354 17217 17021 16758 16641 16427 16149 15887 15674 15537 15308 15158 15009 14675 14474 14190 14011 13859 13763 13573 13386 13246 13161 13075 12880 12735 12488 12343 12075
22278 22300 22393 22475 22505 22521 22442 22507 22544 22589 22723 22867 22886 22871 22963 22986 22956 22837 22740 22674 22598 22600 22547 22478 22575 22549 22523 22485 22471 22458 22431 22405 22356 21605 21627 21581 21524 21370 21345 21437 21417 21488 21556 21692 21735 21713 21716 21645 21586 21716 21746 21769 21906 22074 22177 22287 22364 22373 22413 22607 22692 22778 22825 23015 23109 22853 22685 22515 22448 22285 22203 22049 21971 21718 21479 21404 21230 21053 20949 20725 20604 20553 20451 20286 20235 20185 20153 20148 20110 20107 20039 20007 19922 19834 19641 19435 19270 19295 19445 19496 19508 19483 19403 19361 19302 19229 19033 19017 19013 19111 19202 19152 19170 19294 19468 19572 19606 19651 19769 19733 19727 19657 19698 19838 19875 19902 19874 19877 19991 20006 19987 19924 19795 19764 19622 19554 19403 19398 19316 19163 19079 19153 19206 19212 19235 19255 19347 19344 19296 19171 19165 19191 19284 19319 19285 19374 19452 19487 19551 19776 19876 20025 20117 20105 20135 20188 20201 20298 20401 20498 20527 20672 20786 20845 20838 20980 21077 21119 21101 21078 20940 20774 20571 20535 20416 20407 20385 20330 20311 20383 20490 20547 20628 20476 20268 20206 20141 20115 19986 19911 19919 19716 19397 19231 19422 19428 19428 19428 19428 19463 18346 18371 18324 18228 18146 18134 18019 18014 17918 17887 17742 17703 17789 17801 17750 17508 17394 17287 17292 17180 16979 16736 16603 16432 16201 15890 15617 15459 15222 15099 14917 14576 14328 14119 13976 13773 13667 13410 13206 13215 13099 12961 12816 12662 12508 12275 12116
22436 22413 22458 22567 22535 22506 22527 22606 22506 22662 22826 22841 22955 22915 22914 22870 22890 22721 22674 22527 22551 22557 22493 22485 22448 22522 22497 22459 22429 22413 22399 22371 22321 22285 21624 21590 21526 21445 21357 21360 21418 21598 21646 21718 21678 21714 21624 21533 21538 21730 21813 21840 21894 21991 22126 22201 22230 22343 22392 22428 22539 22638 22701 22852 22880 22756 22603 22402 22325 22283 22160 22058 21911 21608 21473 21359 21212 21003 20798 20694 20537 20501 20466 20338 20270 20209 20256 20190 20067 20113 20014 20035 19977 19725 19569 19404 19319 19328 19391 19484 19460 19519 19481 19405 19439 19354 19232 19120 19072 19108 19168 19163 19155 19244 19396 19429 19473 19638 19637 19779 19816 19761 19788 19802 19887 19903 19992 19958 19966 19949 19923 19909 19888 19726 19599 19561 19489 19401 19295 19247 19144 19233 19275 19359 19335 19457 19481 19462 19414 19253 19234 19317 19331 19309 19383 19384 19484 19505 19577 19772 19841 19949 20058 20166 20201 20341 20344 20516 20591 20661 20608 20803 20847 20922 20990 21016 21055 21071 21116 21082 21022 20770 20639 20635 20437 20519 20488 20408 20440 20461 20530 20691 20813 20551 20433 20256 20193 20112 20051 19908 19866 19722 19575 19343 19409 19409 19409 19409 19409 18414 18387 18368 18376 18287 18171 18041 17943 17955 17853 17787 17699 17625 17651 17662 17677 17528 17342 17236 17241 17077 16879 16814 16636 16427 16144 15854 15656 15414 15244 15122 15022 14716 14461 14273 14106 14015 13863 13530 13324 13145 13007 12934 12762 12595 12442 12282 12089
