15406 15437 15356 15350 15245 15142 15090 15071 15160 15088 15040 14831 14675 14631 14707 14748 14813 14866 14799 14808 14845 14754 14715 14664 14722 14926 15014 15208 15471 15629 15695 15783 15922 15724 15486 15354 15160 15059 14868 14673 14475 14351 14225 14147 14024 13296 13296 13296 13296 13296 13668 13683 13628 13432 13246 13190 13216 13314 13344 13259 13279 13241 13157 13236 13203 13314 13348 13480 13559 13474 13441 13553 13557 13640 13639 13604 13565 13547 13551 13632 13761 13738 13699 13655 13513 13332 13236 13087 12984 12901 12816 12862 12906 12898 13015 13009 12975 12817 12787 12848 12915 12849 12696 12739 12694 12537 12481 12308 12135 12024 11969 11784 11630 11445 11278 11182 11134 10946 10848 10722 10708 10535 10435 10330 10227 10078 10003 9989 9881 9720 9662 9646 9551 9423 9349 9482 9544 9650 9663 9712 9638 9595 9577 9762 9852 9902 10011 10193 10292 10293 10269 10182 10126 10259 10347 10389 10369 10464 10576 10636 10618 10559 10540 10572 10652 10601 10460 10283 10180 10240 10252 10189 10229 10217 10218 10212 10232 10229 10135 10000 9840 9761 9628 9600 9517 9329 9170 9083 8942 8687 8540 8444 8409 8560 8611 8742 8868 9024 9128 9260 9492 9632 9825 9965 10314 10314 10314 10314 10314 11316 11418 11540 11579 11643 11831 11950 12163 12309 12508 12582 12653 12670 12637 12762 12810 12900 12910 12972 12962 12906 12899 12935 12933 12994 13019 13189 13235 13277 13335 13484 13575 13681 13670 13767 13864 13843 13826 13815 13762 13643 13644 13599 13505 13514 13563 13409 13252
15340 15289 15246 15304 15227 15174 15091 15170 15289 15184 15132 14877 14637 14667 14722 14706 14713 14779 14752 14708 14755 14705 14683 14660 14707 14872 15090 15296 15423 15552 15668 15836 15883 15627 15479 15362 15108 15072 14899 14779 14587 14510 14310 14248 14131 13343 13343 13343 13343 13343 13720 13648 13666 13503 13384 13310 13317 13354 13315 13274 13331 13368 13206 13259 13165 13311 13315 13372 13449 13449 13410 13548 13542 13578 13555 13485 13468 13509 13603 13678 13785 13690 13737 13563 13425 13349 13189 13087 13115 13023 13088 13048 13145 13093 13140 13149 13047 13005 12937 12949 12917 12917 12781 12858 12794 12613 12544 12360 12170 12173 12049 11829 11652 11449 11274 11131 11046 11010 10842 10691 10630 10612 10453 10385 10355 10221 10127 10004 9951 9809 9706 9630 9495 9433 9373 9394 9483 9491 9523 9567 9609 9633 9617 9739 9848 9958 10115 10209 10356 10201 10137 10150 10112 10212 10289 10234 10309 10398 10527 10567 10649 10635 10616 10605 10640 10537 10420 10192 10042 10217 10224 10099 10062 10164 10257 10216 10211 10228 10199 9951 9831 9854 9733 9632 9563 9383 9259 9099 8993 8862 8752 8572 8452 8653 8785 8893 9046 9111 9281 9414 9604 9771 9862 10129 10352 10352 10352 10352 10352 11256 11484 11586 11695 11718 11928 12063 12228 12299 12483 12582 12606 12574 12688 12744 12803 12797 12762 12800 12867 12867 12826 12858 12877 13011 13027 13132 13198 13242 13325 13389 13546 13626 13641 13774 13831 13797 13818 13773 13737 13612 13584 13518 13474 13494 13437 13390 13316
15242 15212 15073 15175 15152 15113 15162 15198 15292 15269 15133 14941 14726 14694 14647 14687 14736 14701 14690 14625 14557 14562 14684 14654 14724 14908 15130 15301 15474 15613 15727 15799 15751 15530 15433 15277 15111 15053 14925 14711 14610 14551 14413 14276 14143 13373 13412 13412 13412 13412 13531 13715 13769 13615 13436 13427 13336 13302 13297 13360 13511 13496 13368 13251 13158 13250 13311 13325 13350 13348 13391 13490 13528 13560 13492 13502 13453 13455 13535 13645 13808 13738 13705 13586 13411 13354 13201 13145 13198 13202 13276 13325 13309 13290 13394 13256 13241 13103 13034 13006 13000 12984 12870 12890 12807 12745 12642 12422 12274 12219 12083 11879 11775 11613 11336 11155 11047 10989 10836 10680 10638 10656 10582 10434 10366 10292 10244 10015 9909 9801 9740 9629 9527 9400 9387 9401 9491 9455 9460 9576 9635 9641 9621 9792 9842 9981 10182 10259 10317 10214 10089 10059 10043 10096 10108 10180 10337 10382 10464 10565 10729 10709 10677 10711 10646 10571 10400 10264 10027 10139 10135 10087 9993 10064 10209 10236 10282 10192 10157 10003 9914 9969 9908 9806 9676 9516 9309 9254 9116 8950 8861 8722 8623 8743 8937 9078 9173 9324 9469 9503 9600 9785 9995 10207 10387 10387 10387 10387 10387 11311 11516 11631 11704 11862 11935 12107 12306 12344 12487 12503 12452 12537 12689 12715 12846 12743 12721 12849 12853 12740 12745 12723 12827 12902 12958 13070 13191 13267 13297 13405 13619 13645 13704 13856 13883 13845 13854 13858 13748 13597 13476 13431 13320 13344 13422 13341 13312
15160 15203 15186 15132 15148 15138 15212 15268 15263 15151 15115 14923 14719 14647 14544 14628 14654 14553 14520 14481 14451 14554 14716 14682 14669 14922 15083 15197 15394 15554 15641 15803 15806 15645 15454 15252 15112 15057 14914 14638 14549 14454 14317 14225 14136 13388 13450 13450 13450 13450 13553 13878 13861 13616 13492 13557 13494 13419 13422 13415 13505 13501 13445 13298 13225 13256 13312 13294 13336 13366 13347 13424 13396 13362 13314 13391 13349 13456 13510 13601 13729 13718 13663 13499 13426 13402 13363 13224 13234 13242 13331 13412 13437 13403 13378 13248 13284 13202 13115 13160 13092 12978 12899 12942 12989 12834 12680 12514 12305 12208 12069 11914 11822 11665 11428 11219 11126 11102 10879 10785 10799 10765 10639 10598 10492 10443 10323 10226 10148 10008 9850 9806 9785 9723 9621 9630 9717 9762 9755 9758 9876 9870 9823 9989 10042 10059 10165 10207 10285 10130 10043 10034 10067 10069 10086 10216 10308 10452 10528 10597 10790 10632 10644 10573 10537 10375 10325 10133 9980 10054 10001 9891 9873 9987 10041 10166 10232 10224 10111 9980 9880 9946 9851 9824 9701 9533 9364 9320 9204 9008 8962 8930 8780 8914 9171 9257 9299 9510 9552 9619 9749 9958 10175 10379 10404 10404 10404 10404 10404 11367 11419 11532 11649 11775 11889 12005 12183 12321 12403 12396 12432 12558 12651 12748 12841 12832 12727 12675 12687 12711 12681 12720 12893 12993 13033 13051 13034 13216 13265 13372 13519 13568 13694 13692 13805 13767 13714 13794 13789 13647 13540 13456 13299 13395 13378 13380 13296
15138 15207 15254 15233 15137 15211 15300 15238 15239 15082 15041 14915 14768 14632 14556 14538 14591 14586 14479 14415 14407 14529 14650 14654 14645 14847 15156 15213 15319 15552 15680 15856 15980 15735 15495 15307 15146 14953 14812 14628 14546 14425 14270 14265 14246 13424 13488 13529 13529 13529 13592 13650 13895 13735 13558 13593 13541 13434 13435 13479 13521 13427 13431 13324 13167 13244 13235 13282 13332 13257 13252 13320 13320 13233 13233 13203 13267 13323 13415 13625 13729 13618 13535 13576 13494 13425 13458 13320 13306 13323 13406 13497 13488 13370 13360 13300 13268 13263 13182 13224 13172 13128 13022 13053 13154 12946 12726 12609 12419 12300 12169 12078 11941 11724 11553 11367 11261 11198 11016 10887 10883 10733 10694 10640 10558 10456 10459 10392 10385 10221 9986 9996 9956 9968 9937 9933 9853 9916 10026 9994 10052 10045 10030 10088 10121 10149 10089 10093 10211 10163 10025 10053 10123 10109 10129 10194 10259 10392 10505 10573 10727 10627 10576 10542 10534 10286 10138 10043 9938 9968 9984 9814 9753 9858 9935 10081 10198 10171 10175 10081 9971 9904 9838 9786 9657 9537 9477 9349 9225 9172 9096 9109 9010 9186 9298 9457 9528 9660 9759 9908 10017 10271 10430 10531 10416 10416 10416 10416 10416 11345 11450 11464 11584 11673 11743 11930 12065 12193 12267 12226 12298 12443 12664 12710 12820 12765 12763 12675 12648 12705 12706 12842 12901 12904 13004 12952 12981 13135 13211 13257 13375 13480 13626 13637 13762 13664 13663 13777 13795 13724 13651 13557 13359 13365 13392 13286 13165
15195 15162 15157 15132 15165 15237 15260 15205 15179 15043 15035 14944 14839 14605 14537 14479 14489 14537 14493 14471 14422 14514 14520 14625 14700 14851 15097 15123 15244 15456 15547 15792 15928 15823 15660 15454 15293 15089 14899 14752 14486 14320 14232 14239 14172 13443 13509 13567 13583 13583 13623 13675 13706 13769 13735 13620 13621 13606 13487 13462 13435 13395 13283 13306 13230 13256 13234 13268 13280 13205 13141 13228 13295 13257 13289 13322 13284 13297 13463 13520 13615 13559 13405 13519 13601 13539 13412 13401 13259 13348 13433 13474 13438 13447 13414 13343 13379 13331 13285 13322 13299 13286 13165 13133 13199 13110 12939 12716 12567 12447 12245 12015 11893 11751 11708 11537 11340 11244 11012 10939 10972 10796 10696 10603 10546 10576 10524 10456 10469 10253 10091 10137 10099 10096 10036 10005 9919 10002 10183 10130 10157 10138 10188 10180 10205 10187 10135 10263 10311 10244 10119 10007 10001 10068 10074 10146 10231 10304 10493 10527 10622 10483 10384 10381 10453 10229 9977 9889 9866 9907 9882 9815 9713 9852 9902 9974 10072 9990 10007 10027 9970 9892 9899 9855 9640 9608 9471 9431 9282 9191 9159 9160 9124 9216 9345 9448 9593 9787 9864 9995 10168 10321 10546 10645 10413 10413 10413 10413 10413 11344 11506 11516 11588 11716 11735 11871 11967 12107 12196 12200 12342 12388 12561 12632 12730 12661 12701 12552 12493 12611 12602 12715 12783 12800 12895 12955 12913 13006 13122 13153 13235 13304 13381 13451 13635 13720 13721 13816 13836 13739 13647 13565 13426 13445 13351 13307 13127
15274 15208 15171 15127 15163 15215 15185 15186 15119 15052 14927 14894 14860 14615 14446 14386 14278 14334 14420 14335 14369 14459 14432 14625 14723 14814 15031 15046 15131 15314 15464 15662 15956 15899 15717 15479 15362 15231 15027 14750 14519 14393 14282 14188 14113 13994 13553 13609 13634 13634 13634 13683 13711 13789 13797 13760 13807 13668 13653 13566 13362 13216 13191 13273 13237 13282 13242 13245 13204 13176 13136 13161 13170 13301 13348 13348 13306 13365 13441 13421 13408 13384 13393 13464 13589 13556 13490 13426 13330 13364 13495 13489 13513 13508 13385 13395 13432 13444 13443 13486 13460 13355 13327 13249 13260 13171 13040 12903 12660 12534 12342 12100 11886 11776 11773 11578 11414 11243 11066 11013 10969 10844 10714 10702 10583 10609 10602 10550 10626 10439 10297 10288 10224 10110 10083 10082 10095 10198 10266 10224 10301 10315 10348 10323 10228 10171 10192 10314 10326 10280 10141 10012 9962 9979 9993 10118 10269 10337 10412 10467 10474 10391 10262 10265 10292 10085 9905 9824 9725 9792 9797 9701 9700 9797 9962 9993 10019 9932 9885 10003 9996 9938 9926 9849 9726 9546 9464 9432 9391 9361 9334 9273 9192 9225 9308 9502 9681 9816 9912 10076 10235 10408 10576 10706 10391 10391 10391 10391 10391 11395 11526 11493 11558 11696 11779 11902 11977 12029 12191 12238 12275 12417 12453 12607 12674 12577 12566 12545 12467 12505 12500 12572 12754 12835 12908 12910 12972 13100 13107 13124 13167 13194 13262 13368 13598 13697 13680 13747 13872 13773 13719 13507 13371 13426 13360 13227 13205
15372 15328 15233 15089 15084 15100 15061 15079 15222 15041 15024 14942 14845 14754 14644 14503 14407 14400 14457 14458 14465 14503 14459 14570 14673 14763 14971 14961 15063 15337 15463 15699 15923 15746 15627 15501 15342 15173 15083 14812 14629 14568 14507 14356 14285 14246 13597 13647 13677 13684 13684 13696 13720 13733 13864 13782 13819 13773 13721 13630 13377 13436 13416 13375 13339 13333 13217 13247 13231 13137 13065 13030 13034 13162 13340 13261 13241 13306 13466 13506 13565 13572 13493 13585 13625 13625 13458 13445 13435 13424 13545 13530 13569 13522 13552 13534 13576 13538 13517 13455 13338 13253 13249 13259 13136 13015 12986 12812 12713 12538 12470 12256 12137 12057 11917 11681 11573 11440 11240 11249 11089 11004 10871 10776 10692 10707 10665 10688 10651 10519 10459 10350 10270 10278 10335 10421 10390 10346 10420 10370 10449 10480 10514 10426 10394 10350 10431 10476 10486 10421 10238 10090 10088 10154 10211 10325 10472 10532 10632 10637 10642 10474 10379 10345 10338 10194 10027 9843 9765 9822 9854 9761 9664 9876 9987 9970 9941 9829 9771 9840 9916 9890 9823 9764 9736 9558 9512 9481 9387 9371 9361 9259 9172 9202 9333 9569 9671 9796 9792 9951 10158 10333 10364 10597 10376 10376 10376 10376 10376 11319 11530 11558 11539 11625 11660 11742 11895 11992 12120 12189 12179 12314 12354 12426 12505 12488 12463 12454 12483 12507 12569 12671 12798 12914 12956 12979 12983 13032 13126 13157 13196 13307 13418 13465 13686 13716 13812 13828 13921 13785 13730 13658 13459 13453 13385 13276 13173
15404 15345 15319 15110 14971 15011 15048 15078 15217 15100 15039 14968 14897 14843 14784 14704 14550 14547 14616 14501 14495 14445 14498 14639 14661 14730 14920 15009 15038 15266 15420 15616 15847 15727 15657 15394 15254 15175 15107 14904 14767 14642 14632 14623 14540 14573 14503 13664 13690 13701 13710 13712 13728 13729 13707 13678 13625 13566 13490 13410 13328 13273 13245 13193 13166 13367 13239 13147 13152 13089 13058 13016 13027 13173 13284 13237 13196 13310 13380 13502 13602 13652 13590 13659 13696 13671 13548 13619 13590 13487 13502 13627 13646 13680 13672 13649 13720 13552 13481 13407 13247 13284 13264 13159 13064 13010 12915 12840 12728 12610 12542 12446 12285 12226 12079 11894 11687 11539 11489 11437 11261 11077 10973 10894 10721 10762 10706 10781 10767 10715 10560 10424 10413 10486 10600 10639 10644 10599 10564 10606 10652 10696 10643 10636 10566 10643 10621 10621 10665 10449 10320 10251 10249 10234 10342 10469 10557 10611 10740 10756 10804 10710 10551 10478 10294 10162 10047 9956 9746 9755 9793 9705 9712 9812 9932 9861 9915 9827 9717 9737 9826 9719 9732 9765 9707 9624 9645 9537 9460 9372 9368 9355 9218 9235 9377 9557 9632 9716 9738 9859 10051 10212 10280 10267 10336 10336 10336 10336 10348 11314 11470 11522 11519 11580 11588 11676 11828 11934 12007 12079 12092 12175 12186 12254 12280 12360 12466 12478 12605 12704 12683 12825 12854 12836 12938 13032 13091 13056 13123 13212 13227 13358 13471 13540 13656 13797 13841 13957 14031 13901 13745 13685 13545 13481 13378 13303 13229
15421 15404 15330 15160 14950 14941 15028 15126 15191 15075 15113 14931 14797 14831 14856 14774 14604 14535 14579 14664 14677 14659 14563 14702 14664 14815 15030 15056 15074 15319 15484 15705 15847 15758 15590 15400 15303 15191 15177 15089 15022 14941 14973 14898 14834 14814 14680 13692 13710 13718 13724 13726 13728 13729 13707 13678 13625 13566 13490 13410 13328 13248 13175 13126 13101 13058 13038 13263 13163 13041 12979 12989 12975 13050 13212 13280 13232 13229 13348 13478 13619 13678 13722 13747 13671 13743 13635 13685 13638 13593 13643 13700 13641 13691 13718 13675 13694 13611 13510 13369 13181 13289 13300 13116 13138 12988 12897 12829 12797 12760 12628 12514 12436 12268 12114 12002 11904 11744 11669 11502 11345 11208 11168 10967 10819 10904 10819 10861 10837 10808 10788 10682 10565 10577 10679 10740 10747 10715 10764 10833 10832 10732 10697 10624 10566 10670 10682 10657 10767 10661 10474 10429 10402 10374 10417 10554 10746 10814 10808 10763 10835 10672 10528 10500 10328 10186 10148 9985 9777 9758 9803 9804 9834 9885 9828 9844 9859 9842 9785 9719 9790 9650 9657 9724 9655 9561 9561 9623 9573 9401 9382 9330 9269 9268 9365 9519 9601 9692 9762 9842 9923 10086 10287 10236 10299 10299 10299 10299 10338 11319 11383 11443 11455 11505 11588 11590 11667 11831 11971 12048 12094 12161 12200 12200 12173 12234 12270 12452 12556 12639 12753 12823 12886 12946 13044 13101 13097 13107 13237 13315 13299 13328 13344 13537 13590 13790 13850 13887 14014 13965 13836 13754 13739 13689 13542 13501 13289
15346 15323 15223 15033 14918 14914 15029 15104 15221 15106 15109 14937 14817 14861 14831 14726 14654 14624 14667 14723 14860 14800 14714 14758 14754 14876 15023 15085 15048 15212 15430 15653 15847 15699 15441 15302 15249 15215 15138 15166 15270 15205 15210 15093 15088 14998 14877 14838 13721 13728 13733 13734 13731 13729 13707 13678 13625 13566 13490 13410 13328 13248 13175 13084 13041 12999 12979 12939 12901 13187 13000 12958 12934 13076 13194 13240 13259 13280 13382 13596 13728 13818 13813 13784 13738 13747 13684 13673 13711 13674 13673 13716 13752 13812 13830 13818 13772 13629 13437 13335 13242 13260 13225 13113 13113 13075 12914 12983 12963 12849 12727 12619 12531 12398 12213 12138 12067 11872 11789 11626 11397 11404 11286 11131 11034 11012 10963 10960 11032 11028 10950 10874 10731 10782 10777 10930 10959 11004 10969 10981 10982 10959 10831 10706 10653 10753 10824 10724 10750 10764 10720 10562 10487 10485 10587 10761 10833 10846 10864 10836 10937 10683 10538 10454 10291 10187 10184 10018 9886 9944 9911 9932 9904 9838 9818 9891 9924 9855 9747 9754 9684 9604 9561 9607 9641 9616 9560 9629 9593 9523 9328 9343 9306 9354 9419 9469 9550 9650 9702 9724 9868 9988 10151 10214 10271 10271 10271 10288 10327 11254 11380 11340 11343 11435 11603 11596 11615 11826 11958 12102 12121 12182 12217 12160 12117 12165 12186 12354 12493 12648 12821 12872 12946 13067 13109 13085 13164 13278 13300 13330 13268 13242 13307 13487 13541 13730 13873 13942 14057 13986 13924 13913 13829 13800 13725 13619 13400
15310 15253 15195 15008 14800 14926 14905 15062 15263 15160 15123 14940 14910 14813 14800 14665 14595 14713 14805 14872 14898 14863 14742 14856 14835 14978 15074 15195 15180 15311 15430 15641 15847 15658 15539 15420 15300 15342 15319 15315 15382 15342 15342 15229 15130 15049 14966 14903 13725 13731 13736 13736 13733 13729 13707 13678 13625 13566 13490 13410 13328 13248 13175 13084 13041 12959 12938 12899 12859 12838 13070 13046 13010 13110 13266 13341 13452 13522 13567 13707 13817 13795 13738 13807 13808 13770 13722 13694 13809 13743 13682 13765 13723 13792 13765 13841 13865 13656 13422 13422 13319 13247 13310 13152 13173 13115 12963 13008 13002 12914 12735 12745 12709 12556 12479 12319 12325 12052 11950 11810 11630 11558 11452 11380 11231 11161 11133 11033 11019 10964 10906 10892 10863 10930 10986 11061 10986 10973 10993 10953 11007 11038 10894 10793 10719 10774 10770 10764 10687 10721 10619 10564 10461 10606 10709 10799 10874 10886 10842 10875 11018 10791 10664 10514 10449 10374 10213 10050 9872 9922 9875 9846 9907 9907 9867 9868 9992 9852 9770 9786 9692 9612 9463 9504 9541 9585 9555 9566 9588 9556 9375 9339 9252 9300 9372 9395 9520 9564 9678 9735 9812 9974 10101 10168 10202 10202 10202 10263 10304 11105 11196 11254 11172 11300 11362 11400 11388 11569 11793 11931 12001 11978 12031 12102 12079 12154 12249 12396 12500 12628 12765 12868 13097 13157 13227 13264 13201 13340 13399 13336 13315 13367 13337 13407 13482 13684 13860 13831 13983 14002 13916 13885 13937 13830 13721 13569 13406
15221 15183 15182 14973 14794 14841 14893 15093 15212 15131 15109 15011 14918 14851 14661 14607 14596 14743 14836 14968 15054 14927 14864 14936 14986 15148 15210 15201 15220 15253 15341 15523 15750 15690 15558 15439 15225 15311 15391 15438 15465 15447 15382 15288 15166 15024 14955 14963 14896 13736 13741 13740 13734 13728 13707 13678 13625 13566 13490 13410 13328 13248 13175 13084 13041 12959 12899 12840 12801 12780 12742 12705 13145 13196 13376 13512 13540 13678 13717 13703 13792 13734 13775 13832 13857 13774 13754 13788 13799 13803 13757 13741 13715 13757 13698 13789 13873 13608 13471 13443 13316 13290 13330 13255 13165 13040 12961 13054 13035 12938 12819 12902 12871 12817 12660 12553 12489 12253 12146 11960 11768 11722 11665 11608 11471 11329 11196 11069 11011 10930 10926 10984 10958 11015 11135 11111 11130 11065 11100 11064 11119 11078 10939 10856 10878 10784 10812 10761 10629 10650 10633 10644 10549 10714 10780 10763 10801 10829 10926 10939 11032 10869 10794 10617 10481 10400 10247 10091 9942 9892 9874 9910 9925 9837 9857 9946 9944 9957 9850 9787 9600 9499 9455 9493 9406 9498 9557 9572 9641 9532 9427 9414 9310 9285 9374 9470 9591 9635 9768 9822 9865 9991 10057 10124 10143 10143 10186 10250 10293 10981 11080 11092 11078 11176 11175 11179 11202 11330 11578 11779 11869 11834 11922 11964 12063 12198 12304 12444 12475 12648 12743 12933 13155 13230 13275 13349 13338 13431 13419 13353 13345 13396 13494 13537 13463 13671 13837 13791 13855 13915 13930 13882 13926 13898 13756 13603 13521
15212 15227 15162 15020 14842 14858 14845 14978 15140 15054 14985 14980 14931 14863 14750 14639 14701 14794 14844 14952 15136 15125 15010 14995 15079 15179 15316 15346 15297 15393 15436 15434 15548 15608 15538 15470 15281 15345 15420 15511 15534 15496 15411 15316 15236 15128 15119 15075 15033 14939 14898 14712 14593 14430 14134 14001 13738 13720 13657 13505 13356 13100 13058 13018 12999 12959 12899 12822 12754 12736 12702 12672 12653 13245 13411 13602 13713 13675 13716 13859 13888 13794 13811 13818 13838 13814 13885 13839 13905 13910 13841 13834 13822 13854 13793 13733 13750 13645 13520 13450 13363 13390 13300 13218 13210 13151 13044 13089 13033 13044 12955 12897 12927 12860 12787 12644 12607 12507 12360 12195 11976 11888 11801 11730 11638 11456 11358 11195 11057 11098 11076 11134 11164 11173 11267 11227 11243 11159 11221 11070 11107 10994 10958 10985 11011 10969 10924 10807 10617 10614 10678 10596 10595 10754 10793 10880 10878 10928 10914 10917 10969 10813 10778 10637 10521 10387 10234 10187 10042 10081 9969 9943 10033 10036 9937 10016 9966 9952 9949 9819 9600 9532 9594 9484 9394 9484 9540 9525 9563 9471 9407 9365 9284 9334 9441 9522 9532 9661 9742 9865 9911 9951 10015 10061 10061 10104 10149 10220 10802 10856 10986 11016 11041 11069 11005 11018 10970 11267 11507 11666 11793 11707 11837 11869 11982 12134 12174 12246 12416 12657 12783 12994 13187 13191 13251 13339 13304 13353 13390 13421 13410 13394 13404 13513 13478 13689 13845 13919 13916 13945 13876 13950 13871 13799 13737 13692 13705
15173 15123 15093 14984 14865 14826 14854 14971 15058 15066 14986 14984 14996 14848 14764 14712 14685 14794 14894 15065 15169 15217 15163 15164 15253 15412 15465 15516 15465 15396 15421 15410 15475 15558 15525 15384 15348 15404 15419 15575 15659 15659 15556 15538 15422 15345 15243 15271 15179 15052 14914 14820 14688 14544 14288 13983 13770 13685 13563 13471 13359 13208 13172 12959 12939 12899 12859 12822 12754 12725 12685 12660 12645 12636 12634 13633 13783 13808 13777 13889 13995 13851 13814 13796 13887 13947 13962 13990 14076 14029 13958 13897 13891 13925 13850 13734 13722 13619 13603 13448 13387 13385 13341 13334 13315 13276 13136 13185 13156 13058 13060 13001 12967 12908 12806 12782 12767 12653 12588 12490 12303 12118 12016 11855 11822 11721 11525 11331 11053 11180 11184 11283 11279 11242 11288 11364 11426 11332 11292 11117 11059 11082 11024 10984 11045 10952 10984 10810 10721 10662 10663 10574 10609 10728 10838 10880 10902 10972 10969 10997 10981 10830 10676 10591 10479 10424 10322 10272 10228 10176 10063 10108 10132 10101 10137 10086 10036 10032 9933 9787 9692 9683 9641 9539 9387 9449 9494 9526 9499 9465 9313 9209 9227 9380 9486 9468 9535 9590 9643 9849 9880 9917 9978 9978 10015 10057 10101 10641 10634 10758 10867 10928 10916 10961 10940 10864 10820 11093 11316 11492 11593 11593 11714 11843 11918 12029 12113 12172 12355 12550 12762 12972 13178 13197 13300 13236 13288 13282 13396 13459 13531 13445 13416 13472 13546 13684 13775 13902 13903 13965 13913 13954 13895 13878 13842 13820 13887
15174 15128 15136 15079 15074 15086 15026 15083 15175 15130 15047 15029 15051 14902 14779 14755 14769 14956 15041 15118 15247 15222 15259 15314 15392 15410 15463 15514 15619 15563 15454 15462 15530 15529 15461 15430 15498 15422 15399 15483 15519 15523 15478 15375 15362 15229 15223 15115 15103 14951 14790 14707 14667 14538 14272 13946 13693 13696 13535 13452 13307 13260 13134 13267 13205 12838 12799 12763 12736 12725 12675 12654 12641 12635 12634 13503 13628 13623 13649 13824 13933 13768 13716 13812 13776 13857 14025 13952 14050 13911 13856 13861 13725 13810 13798 13664 13541 13495 13432 13414 13265 13256 13292 13352 13334 13295 13280 13257 13156 13080 13062 12933 12886 12911 12814 12755 12728 12635 12614 12560 12445 12226 12048 11947 11939 11807 11749 11447 11219 11326 11389 11256 11243 11220 11209 11187 11153 11121 11090 11079 11058 11049 11033 11075 11037 11056 11070 11001 10857 10755 10749 10666 10609 10791 10902 10813 10845 10971 11017 11019 11006 10812 10682 10581 10492 10452 10348 10388 10384 10350 10226 10231 10294 10331 10358 10357 10257 10111 10064 9950 9830 9761 9724 9644 9544 9562 9572 9614 9557 9554 9463 9352 9422 9412 9520 9627 9630 9651 9794 9827 9855 9889 9927 9941 9993 10034 10076 10728 10751 10781 10892 10773 10751 10749 10748 10742 10771 11046 11245 11406 11457 11614 11779 11829 11791 11953 12195 12225 12377 12494 12757 13015 13216 13134 13154 13168 13206 13312 13446 13402 13521 13536 13506 13476 13425 13609 13686 13850 13981 13972 13824 13853 13838 13909 13880 13865 13870
15180 15280 15264 15269 15195 15231 15277 15337 15314 15264 15160 15101 15043 15002 14907 14956 14901 15031 15090 15166 15231 15380 15420 15468 15541 15532 15499 15599 15711 15581 15452 15493 15460 15435 15505 15596 15571 15484 15483 15462 15480 15539 15488 15333 15274 15202 15234 15111 15097 14972 14755 14635 14589 14424 14311 14006 13704 13656 13612 13500 13372 13334 13221 13252 13166 13096 12761 12726 12702 12693 12675 12651 12642 12638 12638 12643 13384 13499 13610 13747 13780 13727 13680 13744 13766 13921 13971 13980 13919 13921 13851 13737 13585 13588 13701 13534 13474 13438 13368 13319 13193 13202 13236 13367 13412 13361 13329 13208 13142 13199 13144 13019 12781 12877 12898 12873 12726 12636 12638 12616 12526 12309 12119 12039 12000 11613 11586 11535 11513 11469 11426 11366 11311 11266 11223 11187 11153 11121 11090 11062 11035 11026 11011 11004 10989 11049 11151 11046 10940 10859 10889 10803 10662 10807 10867 10814 10853 10978 11071 11078 11018 10919 10707 10605 10626 10497 10429 10480 10471 10463 10333 10372 10467 10442 10503 10517 10412 10299 10102 9980 9865 9774 9770 9710 9616 9647 9702 9592 9560 9651 9616 9562 9505 9493 9537 9670 9810 9750 9773 9806 9832 9864 9877 9903 9951 9991 10781 10834 10827 10817 10839 10728 10706 10613 10617 10680 10623 10927 11174 11315 11443 11609 11742 11795 11788 12010 12153 12244 12460 12522 12694 12928 13134 13066 13073 13154 13132 13198 13384 13432 13595 13488 13493 13438 13379 13569 13709 13856 13938 13898 13749 13771 13851 13806 13819 13917 13896
15315 15299 15307 15351 15298 15286 15314 15387 15417 15364 15276 15199 15148 15035 15048 14995 14987 15089 15076 15143 15228 15394 15495 15602 15673 15601 15699 15762 15738 15632 15526 15589 15466 15466 15544 15609 15573 15517 15388 15453 15418 15429 15438 15341 15209 15183 15244 15168 15136 14992 14826 14707 14630 14456 14309 13954 13701 13617 13582 13499 13489 13315 13222 13134 13056 12948 12945 12678 12661 12656 12646 12646 12646 12645 12646 12654 12665 13398 13533 13587 13668 13666 13568 13584 13695 13843 13963 13947 14004 13902 13714 13639 13421 13480 13566 13410 13316 13284 13266 13277 13126 13204 13205 13320 13404 13408 13382 13334 13192 13136 13128 12968 12795 12882 12839 12799 12739 12708 12699 12725 12645 12480 11871 11825 11800 11747 11720 11642 11565 11494 11426 11366 11311 11266 11223 11187 11153 11121 11090 11062 11027 11012 10988 10981 10966 10950 10939 11098 11033 11033 10924 10861 10823 10796 10829 10862 10848 10881 11013 11043 11147 10996 10773 10722 10678 10577 10513 10504 10504 10498 10459 10521 10595 10594 10719 10738 10637 10498 10303 10183 9994 10016 9991 9938 9865 9860 9792 9756 9646 9598 9662 9589 9484 9589 9712 9782 9678 9706 9732 9768 9794 9819 9844 9867 9911 10638 10729 10868 10896 10813 10849 10670 10613 10590 10516 10519 10584 10784 11068 11176 11366 11508 11612 11751 11821 12010 12265 12349 12410 12525 12703 12879 13068 13006 12953 13067 13042 13226 13311 13441 13556 13474 13456 13478 13464 13537 13652 13666 13781 13779 13690 13798 13848 13875 13853 13797 13880
15335 15296 15347 15431 15462 15427 15417 15456 15468 15364 15361 15194 15140 15126 15208 15190 15085 15094 15177 15252 15300 15455 15540 15590 15705 15685 15791 15810 15847 15735 15700 15642 15512 15529 15663 15611 15660 15501 15402 15359 15395 15314 15362 15286 15104 15192 15232 15132 15132 14947 14794 14767 14671 14481 14225 13934 13702 13621 13568 13590 13555 13406 13137 13021 12921 12861 12809 12779 12659 12639 12635 12638 12645 12652 12654 12664 12674 12683 13347 13553 13639 13514 13488 13470 13558 13643 13852 13965 13991 13780 13655 13514 13320 13406 13391 13388 13261 13188 13239 13148 13106 13156 13181 13247 13395 13467 13417 13333 13227 13158 13107 12967 12829 12814 12870 12870 12839 12770 12787 12066 12043 12000 11979 11934 11867 11794 11720 11642 11565 11494 11426 11366 11311 11266 11223 11187 11153 11121 11090 11062 11027 11012 10979 10949 10931 10910 10898 10871 11207 11098 11053 10993 10937 10849 10663 10653 10651 10648 10648 10644 10643 10642 10955 10859 10644 10608 10697 10583 10581 10600 10557 10632 10708 10851 10868 10862 10834 10680 10464 10317 10143 10092 10137 10048 9991 9913 9787 9815 9746 9669 9711 9647 9541 9599 9616 9624 9642 9665 9699 9756 9768 9793 9817 9838 10588 10735 10766 10845 11008 10925 10774 10653 10602 10615 10533 10551 10666 10809 11066 11210 11284 11347 11527 11756 11896 12130 12255 12373 12374 12561 12715 12824 12901 12951 12893 12957 12946 13148 13270 13378 13569 13577 13482 13467 13425 13505 13475 13622 13742 13742 13709 13808 13857 13908 13833 13755 13793
15431 15391 15432 15386 15420 15493 15508 15446 15536 15434 15332 15281 15194 15214 15264 15260 15237 15214 15255 15374 15383 15399 15560 15693 15743 15709 15780 15723 15760 15717 15671 15634 15600 15596 15625 15689 15683 15482 15342 15332 15350 15342 15341 15289 15145 15126 15271 15239 15139 15032 14846 14740 14618 14455 14185 13957 13760 13651 13567 13619 13529 13333 13164 12950 12828 12823 12845 12809 12720 12672 12634 12638 12647 12656 12664 12672 12681 12689 12696 13482 13616 13546 13532 13491 13577 13707 13749 13890 13892 13760 13540 13470 13275 13294 13380 13247 13169 13114 13147 13104 13175 13136 13171 13278 13310 13286 13293 13216 13152 13028 12935 12783 12738 12768 12754 12673 12180 12166 12155 12125 12107 12055 11999 11934 11867 11794 11720 11642 11565 11494 11426 11366 11311 11266 11223 11187 11153 11121 11090 11062 11027 11012 10979 10949 10918 10869 10843 10816 10788 10746 10712 10693 10691 10687 10679 10670 10662 10654 10648 10651 10656 10658 10666 10670 10674 10726 10731 10579 10552 10589 10713 10755 10925 10931 11021 11062 10925 10815 10538 10383 10226 10248 10204 10174 10081 10004 9828 9765 9708 9701 9602 9601 9598 9599 9605 9612 9630 9665 9699 9732 9744 9771 9796 9817 10640 10771 10864 10888 10989 10883 10770 10702 10620 10576 10623 10604 10744 10822 11040 11185 11245 11369 11519 11616 11792 12037 12214 12267 12327 12393 12506 12685 12784 12776 12764 12918 12960 13037 13186 13372 13514 13420 13386 13380 13363 13362 13431 13561 13654 13675 13665 13679 13787 13839 13877 13926 13863
15442 15431 15539 15394 15355 15457 15508 15537 15623 15478 15395 15408 15323 15252 15308 15343 15424 15421 15325 15360 15364 15447 15509 15662 15730 15733 15703 15720 15754 15753 15688 15766 15754 15639 15564 15620 15626 15531 15360 15385 15430 15293 15247 15146 15090 15124 15186 15195 15122 14979 14784 14624 14523 14405 14222 14016 13794 13712 13620 13566 13507 13369 13155 12917 12794 12870 12859 12855 12736 12679 12592 12643 12654 12664 12672 12682 12692 12701 12710 12724 13644 13642 13579 13571 13614 13640 13663 13752 13842 13595 13461 13320 13297 13223 13253 13182 13160 13171 13180 13145 13201 13221 13231 13233 13237 13258 13180 13104 13090 12913 12770 12655 12634 12620 12194 12194 12190 12180 12171 12142 12118 12055 11999 11934 11867 11794 11720 11642 11565 11494 11426 11403 11363 11343 11306 12024 11999 11885 11692 11011 10997 10989 10971 10949 10918 10869 10843 10795 10762 10739 10719 10706 10695 10687 10679 10670 10662 10654 10648 10651 10658 10663 10670 10674 10678 10683 10675 10641 10523 10613 10832 10969 11063 11106 11213 11215 10563 10537 10485 10456 10391 10297 10188 10078 9971 9896 9831 9729 9678 9636 9628 9617 9603 9600 9605 9612 9630 9665 9687 9708 9720 9748 9776 10736 10681 10715 10836 10959 10979 10934 10818 10744 10618 10583 10660 10672 10813 10937 11095 11095 11207 11308 11389 11549 11759 11875 12102 12217 12288 12302 12398 12489 12611 12574 12663 12806 12918 12967 13095 13181 13349 13415 13406 13431 13369 13386 13320 13365 13470 13440 13534 13663 13804 13885 13951 13989 13931
15537 15562 15637 15529 15453 15497 15512 15584 15637 15467 15443 15431 15421 15420 15455 15529 15503 15522 15447 15453 15474 15603 15728 15777 15801 15775 15802 15732 15726 15779 15806 15781 15784 15646 15595 15586 15615 15461 15438 15394 15400 15353 15353 15290 15179 15166 15183 15104 15094 14895 14764 14617 14575 14362 14239 14089 13959 13850 13629 13511 13446 13307 13065 12807 12673 12718 12721 12701 12707 12622 12625 12583 12665 12674 12681 12700 12708 12719 12731 12748 12784 13737 13637 13673 13714 13661 13544 13552 13703 13458 13275 13250 13251 13237 13243 13146 13218 13130 13146 13268 13321 13221 13154 13253 13234 13232 13090 13050 13009 12939 12792 12649 12564 12200 12197 12197 12193 12185 12175 12142 12118 12055 11999 11934 11867 11820 11774 11749 11697 11670 12030 12049 11953 11970 11991 11943 11934 11908 11767 11708 10976 10968 10946 10921 10908 10869 10843 10795 10762 10739 10719 10706 10695 10687 10679 10670 10662 10654 10648 10651 10658 10667 10677 10685 10691 10699 10708 10714 10624 10760 10835 10958 10761 10750 10723 10703 10663 10624 10555 10480 10391 10297 10188 10078 9971 9870 9814 9727 9683 9647 9628 9617 9603 9600 9605 9612 9630 9653 9662 9680 9691 9718 10908 10790 10839 10868 10939 11001 10963 10947 10886 10774 10651 10691 10728 10687 10731 10933 11073 11148 11222 11364 11383 11530 11646 11757 11876 12016 12231 12290 12293 12403 12482 12569 12702 12855 13015 13090 13087 13191 13201 13306 13273 13217 13282 13275 13210 13394 13479 13521 13546 13677 13685 13830 13833 13911 13956
15625 15628 15653 15567 15466 15528 15592 15657 15599 15561 15604 15613 15517 15509 15530 15622 15702 15567 15544 15619 15633 15706 15879 15850 15908 15946 15963 15877 15777 15852 15830 15846 15837 15667 15548 15557 15515 15463 15464 15355 15361 15336 15404 15353 15277 15246 15170 15034 14963 14763 14692 14629 14626 14463 14213 14108 14012 13898 13671 13491 13296 13132 12865 12663 12584 12628 12596 12712 12714 12680 12583 12546 12581 12683 12689 12709 12728 12738 12762 12781 12815 12834 12844 13677 13732 13625 13473 13420 13470 13329 13215 13119 13099 13122 13256 13182 13187 13147 13176 13261 13370 13335 13185 13152 13211 13120 13046 13059 12969 12857 12724 12648 12182 12189 12191 12192 12191 12186 12175 12142 12118 12055 12020 12000 11956 11935 12419 12304 12123 12101 12113 12089 11987 11999 12021 11943 11942 11917 11841 11699 11626 11465 10910 10884 10870 10842 10829 10795 10762 10739 10719 10706 10695 10687 10679 10670 10662 10654 10648 10651 10658 10667 10677 10689 10702 10710 10718 10722 10761 10829 10829 10824 10810 10797 10767 10730 10678 10624 10555 10480 10391 10297 10188 10078 9971 9870 9814 9727 9683 9647 9628 9617 9603 9600 9605 9612 9614 9624 9632 9649 10823 10951 10971 10920 10975 10996 11081 11063 10977 10988 10983 10889 10770 10750 10689 10736 10762 10930 11010 11073 11263 11351 11343 11380 11419 11585 11662 11856 12103 12140 12195 12243 12406 12522 12722 12856 13045 13054 13181 13162 13175 13146 13028 13050 13128 13126 13195 13320 13397 13407 13544 13642 13687 13792 13840 13934 14101
15546 15554 15528 15497 15501 15493 15542 15542 15624 15571 15635 15614 15605 15590 15652 15754 15827 15692 15708 15737 15696 15805 15828 15934 15943 15984 16121 15945 15961 15918 16027 15875 15868 15749 15629 15664 15580 15536 15452 15331 15349 15302 15330 15281 15230 15224 15146 15059 14897 14782 14625 14526 14492 14364 14111 14063 13860 13768 13584 13468 13191 13051 12751 12585 12536 12640 12602 12682 12678 12614 12564 12562 12653 12791 12696 12720 12741 12752 12771 12798 12836 12849 12854 12858 12855 13517 13432 13458 13399 13260 13216 13096 13126 13174 13168 13128 13145 13250 13290 13306 13428 13241 13094 13126 13099 12964 12918 12932 12792 12710 12170 12171 12176 12182 12185 12190 12191 12186 12175 12168 12162 12147 12121 12674 12580 12483 12504 12399 12214 12218 12262 12188 12185 12145 12115 12119 12081 11970 11951 11908 11806 11709 11505 11514 10827 10800 10788 10769 10762 10739 10719 10706 10695 10687 10682 10680 10676 10674 10653 10663 10668 10674 10677 10689 10702 10713 10731 10742 10768 10789 10805 10818 10810 10797 10767 10730 10678 10624 10555 10480 10391 10297 10188 10078 9971 9870 9814 9727 9683 9647 9628 9617 9603 9600 9598 9596 9594 10457 10594 10729 10902 10939 11053 11017 11157 11148 11212 11202 11112 11149 11053 11036 10854 10889 10871 10918 10914 11038 11122 11228 11426 11385 11405 11489 11446 11594 11721 11809 12057 12035 12122 12259 12340 12477 12642 12780 12889 12892 13028 12968 12898 12878 12910 12994 12982 13043 13155 13283 13311 13463 13564 13621 13666 13729 13758 13872 13902
15442 15449 15515 15509 15440 15509 15475 15603 15677 15693 15749 15659 15605 15657 15673 15741 15918 15836 15848 15834 15875 15839 15867 15981 16084 16105 16182 16069 16028 16064 16111 15967 15933 15784 15755 15670 15617 15544 15416 15374 15384 15245 15202 15145 15170 15167 15096 15056 14891 14741 14628 14490 14383 14311 14127 13974 13799 13737 13616 13409 13194 12940 12760 12625 12479 12568 12536 12614 12608 12575 12668 12744 12726 12820 12860 12736 12759 12770 12790 12798 12836 12847 12847 12842 12838 12829 12820 12814 13430 13348 13221 13163 13044 13081 13146 13196 13214 13268 13337 13331 13377 13232 13053 12935 12924 12755 12700 12776 12197 12183 12178 12177 12179 12180 12185 12190 12192 12195 12194 12193 12191 12764 12691 12642 12673 12604 12484 12498 12399 12454 12426 12388 12374 12325 12291 12147 12108 12104 12155 12053 12042 11927 11707 11589 11444 11500 11548 10732 10727 10727 10727 10727 10716 11031 11139 11124 11222 11195 11193 11332 10675 10685 10689 10698 10705 10713 10731 10742 10768 10789 10805 10818 10810 10797 10767 10730 10678 10624 10555 10480 10391 10297 10188 10078 9971 9870 9814 9727 9683 9647 9636 9627 9612 9607 10273 10412 10462 10617 10661 10801 11030 11068 11084 11184 11316 11266 11241 11244 11212 11206 11215 11132 11045 10999 11027 11046 11089 11246 11289 11354 11477 11427 11475 11507 11484 11571 11661 11808 12059 12046 12071 12160 12305 12481 12583 12571 12643 12778 12810 12761 12707 12707 12831 12880 12840 13000 13040 13147 13281 13470 13553 13626 13695 13726 13746 13682 13740
15389 15403 15480 15487 15474 15429 15436 15471 15557 15686 15662 15758 15751 15762 15761 15794 15991 15922 15939 15897 15976 15936 15962 15940 15995 16070 16117 16085 16179 16121 16168 16182 16088 16017 15929 15876 15758 15568 15461 15473 15342 15255 15192 15168 15167 15100 14929 14846 14764 14666 14559 14482 14362 14226 14098 13926 13810 13595 13474 13322 13211 12920 12754 12615 12411 12512 12532 12540 12659 12659 12769 12772 12674 12791 12728 12759 12783 12793 12812 12819 12836 12847 12847 12837 12831 12818 12813 12811 12810 12811 12821 13127 13047 13063 13125 13253 13265 13268 13302 13366 13362 13172 13073 12905 12881 12275 12252 12238 12231 12217 12200 12187 12179 12180 12184 12188 12191 12197 12198 12817 12816 12780 12812 12729 12752 12749 12654 12640 12522 12571 12615 12541 12538 12481 12417 12370 12256 12227 12221 12189 12137 12027 11770 11727 11623 11582 11586 11669 11566 11532 11439 11278 11165 11235 11297 11219 11286 11216 11260 11376 11446 10696 10699 10708 10714 10717 10731 10742 10768 10789 10805 10818 10810 10797 10767 10730 10717 10689 10673 10627 11307 11010 10845 10744 10569 9714 9714 9714 9714 9714 10261 10133 10124 10287 10365 10535 10536 10662 10840 10954 11198 11236 11256 11261 11420 11453 11414 11340 11349 11306 11308 11276 11104 11093 11131 11206 11142 11304 11307 11375 11481 11378 11389 11447 11443 11606 11753 11862 11971 12081 12095 12246 12349 12445 12455 12512 12520 12566 12637 12591 12466 12574 12652 12681 12648 12870 12990 13089 13149 13356 13511 13562 13532 13663 13657 13618 13661
15435 15432 15369 15438 15542 15550 15439 15494 15560 15635 15613 15721 15875 15880 15896 15894 15989 15976 16069 16054 16080 16170 16134 16012 16013 16063 16155 16167 16256 16259 16272 16269 16197 16155 16130 15995 15912 15697 15597 15508 15311 15261 15298 15255 15100 15018 14870 14741 14585 14577 14487 14303 14231 14135 14117 13913 13751 13525 13424 13319 13138 12931 12849 12542 12347 12347 12436 12488 12618 12628 12754 12670 12684 12730 12666 12737 12805 12815 12832 12838 12843 12847 12847 12837 12831 12818 12813 12817 12822 12829 12835 12833 12828 12825 12818 12813 12798 13277 13239 13331 12537 12518 12478 12457 12419 12382 12332 12277 12254 12217 12200 12187 12179 12178 12179 12183 12186 12193 12967 12974 12892 12861 12892 12886 12849 12893 12838 12733 12617 12684 12736 12724 12698 12676 12626 12618 12516 12427 12332 12253 12256 12085 11895 11779 11741 11745 11742 11699 11684 11550 11544 11417 11270 11334 11360 11292 11326 11276 11353 11478 11574 11470 11485 10719 10724 10728 10738 10746 10768 10789 10805 10818 10817 10815 10812 10795 10785 11641 11521 11428 11438 11192 10946 10800 10679 10596 10594 10596 10690 10569 10371 10185 10105 10262 10528 10651 10723 10898 11000 11180 11247 11246 11367 11387 11528 11565 11528 11523 11553 11432 11409 11342 11178 11250 11262 11266 11218 11360 11452 11523 11472 11424 11416 11475 11473 11564 11771 11882 11944 12127 12234 12225 12341 12390 12371 12315 12319 12369 12440 12331 12310 12334 12402 12503 12572 12773 12897 12974 13059 13189 13372 13456 13469 13577 13601 13607 13571
15439 15448 15366 15386 15543 15540 15432 15487 15531 15567 15598 15672 15834 15899 15868 15943 16019 16089 16134 16123 16065 16144 16177 16056 16042 16138 16237 16252 16460 16341 16361 16295 16306 16317 16250 16056 15993 15842 15640 15562 15369 15389 15333 15234 15048 14972 14863 14692 14534 14525 14387 14221 14192 14021 13882 13682 13547 13495 13426 13280 13126 12896 12695 12497 12341 12377 12477 12606 12647 12656 12742 12708 12663 12636 12593 12670 12735 12853 12853 12858 12857 12851 12847 12837 12831 12818 12813 12817 12822 12829 12835 12833 12828 12811 12793 12772 12748 12725 12700 12681 12633 12603 12534 12496 12439 12382 12332 12277 12254 12217 12200 12187 12177 12173 12171 12173 12765 12851 12876 12837 12811 12797 12846 12861 12869 12764 12786 12724 12739 12788 12779 12747 12794 12805 12729 12756 12604 12596 12476 12421 12401 12265 12218 12078 11965 11955 11880 11878 11857 11765 11651 11532 11383 11525 11611 11607 11618 11569 11687 11709 11739 11762 11696 11610 11596 10738 10752 10762 10773 10773 10781 10803 10816 11783 11768 11790 11897 11808 11648 11629 11633 11404 11154 11045 10999 10921 10802 10832 10843 10703 10604 10396 10224 10413 10667 10793 10831 11016 11075 11200 11269 11360 11446 11545 11615 11702 11673 11657 11613 11576 11488 11363 11304 11391 11424 11367 11256 11334 11438 11394 11408 11330 11368 11437 11459 11615 11726 11741 11824 12007 12207 12216 12181 12246 12237 12183 12158 12216 12232 12249 12154 12135 12241 12382 12484 12572 12710 12831 12910 12985 13141 13205 13325 13462 13541 13503 13498
15344 15341 15302 15447 15502 15510 15433 15477 15457 15487 15604 15766 15826 15894 15944 15943 15968 16069 16103 16077 16113 16083 16104 16042 16092 16221 16257 16363 16547 16482 16442 16472 16424 16347 16266 16199 16034 15833 15648 15602 15452 15452 15365 15208 15017 14909 14794 14709 14579 14414 14309 14189 14081 13912 13646 13544 13437 13330 13307 13128 13026 12868 12631 12542 12358 12461 12474 12621 12655 12670 12605 12592 12548 12578 12618 12605 12691 12767 12805 12958 13068 12839 12834 12825 12822 12818 12813 12817 12822 12829 12835 12833 12828 12811 12793 12772 12748 12725 12700 12681 12633 12603 12534 12496 12439 12382 12332 12277 12254 12217 12209 12196 12183 12177 12750 12767 12722 12693 12698 12710 12851 12891 12928 12843 12816 12722 12728 12848 12882 12877 12794 12931 12961 12886 12921 12825 12707 12659 12615 12544 12495 12517 12422 12344 12187 12106 12098 12100 11979 11966 11880 11711 11510 11662 11755 11753 11806 11822 11929 11953 11977 11939 11828 11698 11613 11573 11472 11394 11339 11443 11662 11728 11898 11958 11923 11887 11942 11931 11810 11734 11702 11450 11288 11228 11229 11082 11030 11061 11054 10849 10740 10561 10462 10685 10923 10987 11061 11135 11196 11290 11414 11469 11540 11549 11648 11715 11707 11805 11781 11747 11640 11544 11399 11492 11462 11343 11342 11473 11478 11447 11373 11316 11365 11404 11570 11635 11677 11767 11802 11947 12132 12080 12123 12193 12141 12162 12091 12068 12010 12040 12025 12053 12098 12226 12362 12451 12495 12583 12697 12782 12923 13031 13066 13248 13389 13429 13490
15243 15254 15247 15373 15449 15393 15328 15267 15226 15366 15579 15577 15695 15817 15882 15894 15952 16002 16090 16211 16296 16210 16276 16185 16240 16334 16334 16517 16597 16550 16608 16567 16593 16457 16355 16231 16180 16038 15817 15656 15440 15361 15338 15203 14975 14851 14716 14685 14588 14424 14231 14062 13920 13746 13472 13426 13243 13242 13167 13115 12963 12806 12734 12602 12483 12510 12581 12591 12621 12580 12611 12519 12520 12486 12496 12518 12604 12632 12760 12833 12913 12997 13046 12809 12809 12807 12810 12817 12822 12829 12835 12833 12828 12811 12793 12772 12748 12725 12700 12681 12633 12603 12534 12496 12439 12382 12332 12277 12263 12238 12228 12215 12532 12584 12654 12679 12823 12684 12651 12705 12828 12817 12894 12721 12664 12684 12769 12883 12916 12995 12964 13026 13069 13014 12938 12904 12969 12844 12740 12711 12630 12605 12534 12483 12351 12331 12299 12291 12160 12094 12086 11886 11719 11774 11936 11988 11939 12002 12062 12065 12075 12104 11998 11874 11714 11755 11662 11635 11572 11612 11763 11867 12003 12001 12012 12066 12059 11968 11794 11709 11698 11648 11574 11439 11334 11226 11127 11184 11089 11019 10986 10825 10643 10827 11085 11185 11168 11324 11342 11429 11622 11659 11697 11664 11748 11775 11770 11893 11890 11767 11647 11576 11503 11441 11488 11463 11409 11407 11449 11388 11482 11409 11491 11487 11569 11591 11583 11736 11731 11894 12057 12049 12117 12143 12078 12023 11995 11985 12024 11983 11954 12068 12104 12128 12259 12273 12416 12458 12595 12705 12901 12913 12916 13065 13255 13303 13386
15096 15123 15214 15297 15335 15205 15185 15142 15109 15231 15478 15518 15651 15752 15833 15963 16042 16131 16142 16313 16399 16376 16476 16400 16410 16501 16482 16553 16666 16674 16680 16775 16867 16653 16524 16332 16264 16081 15945 15789 15527 15393 15266 15160 14939 14798 14623 14606 14500 14400 14197 13983 13772 13649 13425 13291 13073 13046 13011 12969 12987 12838 12715 12654 12591 12664 12684 12580 12542 12595 12554 12460 12458 12462 12370 12478 12528 12631 12708 12767 12852 12904 12993 12897 12893 12932 12912 12836 12838 12839 12838 12833 12828 12811 12793 12772 12748 12725 12700 12681 12633 12603 12534 12496 12439 12400 12380 12342 12325 12582 12631 12529 12541 12610 12598 12696 12806 12694 12709 12720 12735 12800 12776 12610 12569 12704 12720 12806 12905 12977 13042 13075 13081 13002 13034 13128 13109 12989 12967 12848 12666 12593 12632 12550 12552 12539 12519 12455 12294 12280 12219 12007 11912 12001 12137 12159 12122 12163 12242 12256 12249 12243 12118 12010 11902 11836 11855 11748 11752 11876 11988 11939 12002 11979 11985 12055 12112 11934 11845 11773 11817 11742 11790 11691 11541 11430 11292 11208 11172 11134 11160 11087 10904 11130 11241 11284 11379 11530 11569 11673 11830 11917 11884 11808 11774 11858 11879 11945 12060 11823 11702 11666 11537 11536 11512 11533 11460 11450 11452 11427 11473 11522 11575 11569 11635 11640 11615 11678 11680 11770 11865 11977 12077 12045 11977 12014 12006 12042 11998 11955 11862 11952 12114 12091 12113 12204 12398 12497 12557 12677 12765 12840 12823 12976 13147 13261 13359
15162 15230 15175 15296 15242 15144 15218 15045 14997 15218 15414 15507 15725 15763 15836 15922 16048 16165 16268 16276 16379 16389 16322 16357 16309 16334 16364 16472 16628 16678 16702 16775 16839 16705 16586 16404 16324 16071 16005 15725 15565 15395 15170 15107 14930 14794 14653 14673 14563 14321 14105 13963 13785 13571 13448 13339 13249 13085 13064 13001 13012 12843 12633 12539 12454 12544 12625 12500 12533 12555 12629 12562 12508 12531 12512 12530 12605 12639 12757 12794 12826 12857 12952 12893 12872 12904 12905 12920 12858 12969 12977 13029 13144 12768 12761 12747 12740 12725 12700 12681 12649 12637 12610 12595 12576 12762 12792 12763 12786 12783 12895 12802 12764 12726 12790 12887 12897 12894 12892 12839 12877 12910 12888 12825 12731 12785 12829 12908 12917 13043 13083 13099 13045 13132 13195 13268 13265 13118 13064 12897 12857 12715 12656 12657 12630 12678 12711 12630 12454 12446 12369 12207 12077 12174 12198 12232 12270 12302 12332 12292 12316 12309 12273 12100 12042 11939 11859 11860 11867 11874 11960 12076 12162 12150 12191 12261 12309 12138 12007 11948 12049 11908 11904 11807 11626 11597 11510 11446 11376 11317 11233 11059 10939 11159 11326 11345 11520 11552 11735 11798 11878 11973 12032 11938 11963 11919 11915 11893 12009 11928 11757 11673 11617 11617 11721 11707 11617 11545 11508 11550 11504 11590 11745 11689 11710 11707 11709 11846 11895 11920 12017 12011 12036 12138 12097 12072 12036 12008 12057 12025 11980 12028 12168 12286 12247 12363 12543 12605 12714 12830 13025 13055 13032 13256 13339 13432 13576
15242 15237 15260 15259 15142 15161 15126 15033 14996 15173 15328 15516 15708 15767 15923 16085 16144 16188 16334 16357 16410 16296 16238 16227 16260 16263 16288 16449 16529 16624 16651 16717 16859 16743 16667 16554 16330 16080 15948 15786 15563 15313 15188 15017 14939 14911 14798 14711 14539 14348 14108 13941 13827 13649 13565 13450 13343 13214 13030 13011 12954 12757 12647 12477 12332 12395 12486 12485 12585 12562 12592 12649 12603 12610 12646 12667 12714 12728 12844 12878 12786 12865 12945 12824 12827 12839 12838 12855 12902 12969 13095 13164 13197 13417 13550 13679 13728 13621 13587 13505 13334 13220 13090 13007 12964 12978 13038 12994 12926 12991 13110 13123 13030 12956 12993 13016 12939 12930 13012 13087 13097 13096 13007 13026 12946 12952 13036 12996 12985 13109 13152 13103 13137 13250 13305 13271 13327 13266 13146 13029 13021 12888 12783 12746 12813 12798 12819 12696 12605 12504 12432 12262 12163 12237 12230 12271 12326 12358 12317 12336 12307 12303 12310 12211 12173 12098 11931 11869 11904 11933 11973 12038 12223 12248 12391 12390 12381 12223 12157 12178 12159 12111 12094 11979 11805 11719 11743 11637 11620 11422 11284 11131 11064 11197 11438 11487 11576 11674 11799 11873 12002 12047 12133 12156 12113 12070 11969 11958 11983 11910 11762 11665 11664 11709 11843 11773 11829 11727 11597 11616 11618 11677 11858 11757 11755 11829 11863 11966 11996 12005 12140 12064 12047 12153 12195 12220 12126 12068 12043 12146 12159 12220 12335 12406 12392 12462 12578 12674 12895 13034 13188 13190 13247 13426 13648 13709 13719
15247 15161 15182 15227 15173 15171 15096 15014 15009 15261 15435 15547 15794 15922 16039 16195 16238 16257 16271 16325 16306 16272 16135 16244 16255 16239 16272 16433 16575 16728 16771 16834 16839 16740 16586 16385 16246 16058 15886 15667 15476 15293 15227 15082 14868 14883 14795 14730 14592 14355 14202 14010 13920 13842 13673 13540 13495 13283 13115 13034 12859 12755 12666 12411 12335 12364 12485 12491 12487 12520 12652 12644 12696 12780 12802 12840 12798 12874 12839 12775 12756 12843 12898 12881 12837 12922 12843 12861 12965 13088 13154 13292 13345 13546 13665 13848 13946 13850 13784 13591 13460 13429 13320 13159 13085 13181 13195 13091 13042 13154 13216 13243 13155 13116 13154 13157 13088 13095 13115 13291 13378 13408 13357 13262 13217 13252 13189 13230 13171 13202 13244 13164 13146 13310 13399 13392 13452 13304 13258 13164 13127 13020 12975 12929 12886 12813 12828 12744 12747 12607 12464 12315 12141 12239 12302 12388 12408 12436 12446 12438 12405 12356 12269 12239 12203 12122 12049 11985 11942 12046 11995 12185 12317 12410 12426 12512 12512 12369 12298 12285 12229 12254 12240 12108 11950 11926 11930 11786 11710 11621 11464 11297 11159 11249 11459 11484 11597 11722 11818 11908 12094 12098 12185 12159 12162 12088 12088 12034 11986 12004 11968 11776 11730 11847 11841 11911 11911 11817 11650 11675 11756 11810 11904 11904 11991 11984 12015 12007 12118 12192 12272 12262 12206 12199 12268 12276 12200 12069 12074 12170 12201 12369 12492 12505 12542 12565 12751 12798 13031 13201 13302 13472 13551 13646 13803 13810 13789
15194 15134 15186 15134 15163 15106 15084 15083 15039 15332 15500 15689 15966 16062 16195 16261 16383 16315 16221 16190 16246 16191 16134 16206 16228 16242 16325 16458 16620 16742 16884 16896 16935 16785 16562 16321 16158 16006 15856 15667 15418 15277 15166 15017 14767 14709 14686 14650 14532 14433 14253 14072 13935 13904 13793 13735 13564 13442 13298 12991 12799 12701 12592 12421 12221 12267 12406 12438 12484 12616 12730 12810 12780 12919 12938 12968 12933 12914 12959 12876 12836 12842 12929 12851 12867 12923 12901 12950 12950 13044 13147 13352 13552 13662 13887 13948 14137 14054 14004 13827 13670 13505 13450 13382 13297 13338 13382 13314 13251 13270 13385 13318 13273 13300 13265 13271 13192 13254 13306 13375 13562 13594 13629 13537 13512 13541 13457 13339 13244 13227 13249 13189 13233 13395 13455 13506 13451 13377 13380 13286 13208 13232 13144 13058 12925 12938 12894 12887 12795 12625 12473 12328 12221 12228 12294 12352 12526 12535 12527 12515 12406 12321 12314 12310 12331 12262 12083 12068 12087 12153 12104 12277 12375 12488 12494 12491 12569 12525 12524 12479 12338 12393 12365 12247 12146 12147 12067 11934 11816 11648 11519 11452 11271 11313 11478 11586 11733 11861 11906 12049 12198 12270 12245 12319 12310 12247 12173 12129 12111 12070 12071 11916 11849 11861 11968 11991 11945 11888 11819 11764 11838 11964 12027 12050 12112 12169 12262 12186 12180 12193 12329 12305 12250 12304 12294 12231 12195 12185 12131 12289 12324 12415 12582 12645 12648 12724 12895 12963 13058 13294 13431 13649 13819 13858 13974 13914 13950
15126 15198 15265 15235 15233 15136 15179 15180 15099 15337 15508 15756 16000 15992 16107 16230 16334 16356 16287 16234 16222 16256 16154 16209 16163 16275 16334 16471 16629 16782 16827 16917 16920 16724 16576 16451 16246 16118 15889 15686 15460 15350 15183 15018 14790 14787 14798 14688 14648 14471 14265 14070 13935 13936 13854 13762 13590 13442 13305 13021 12873 12818 12647 12516 12287 12306 12353 12463 12461 12575 12745 12910 12946 12943 12974 12920 12951 13018 12992 12922 12758 12741 12848 12803 12885 12892 12835 12976 13035 13110 13196 13419 13643 13762 13917 14035 14265 14122 14145 13998 13814 13710 13692 13549 13562 13567 13628 13480 13507 13563 13585 13511 13385 13413 13431 13369 13341 13402 13511 13607 13668 13664 13660 13568 13591 13523 13518 13471 13344 13402 13375 13285 13315 13302 13365 13396 13449 13384 13406 13278 13182 13166 13145 13041 12925 13018 12971 12954 12907 12647 12522 12390 12276 12281 12368 12389 12587 12551 12519 12396 12340 12329 12337 12371 12317 12166 12098 12098 12151 12187 12271 12406 12510 12522 12565 12707 12768 12611 12505 12495 12367 12369 12311 12375 12307 12231 12150 12005 11819 11729 11599 11463 11326 11409 11553 11643 11785 11869 12000 12104 12290 12304 12218 12223 12309 12271 12254 12212 12227 12217 12237 12209 12045 12119 12149 12122 12130 12044 12003 11965 11928 12031 12070 12084 12127 12192 12257 12209 12193 12190 12282 12204 12255 12375 12414 12343 12241 12249 12282 12423 12426 12565 12630 12685 12822 12944 12981 13182 13341 13452 13623 13765 14005 14044 14071 14101 14099
15010 15185 15255 15274 15405 15272 15244 15224 15234 15383 15534 15727 15992 15978 16072 16287 16403 16380 16348 16320 16285 16270 16157 16192 16218 16291 16362 16545 16655 16800 16872 16922 16888 16831 16684 16517 16399 16146 16001 15688 15496 15369 15227 14975 14794 14782 14807 14780 14749 14559 14285 14205 14030 13937 13894 13763 13589 13441 13357 13110 12948 12888 12713 12589 12379 12435 12372 12442 12551 12654 12756 12902 13002 12999 12919 13035 13035 13010 12908 12830 12767 12759 12801 12797 12858 12904 12862 13006 13185 13230 13344 13540 13628 13830 13995 14141 14280 14199 14224 14139 13998 14000 13934 13800 13717 13809 13804 13717 13701 13683 13697 13573 13450 13596 13626 13547 13530 13575 13717 13704 13649 13662 13756 13718 13696 13612 13649 13587 13550 13542 13584 13510 13323 13381 13341 13433 13419 13380 13393 13228 13184 13149 13231 13080 13011 13084 13106 13067 13007 12754 12624 12479 12288 12400 12420 12499 12588 12432 12386 12373 12385 12328 12258 12304 12230 12187 12235 12316 12306 12270 12322 12493 12585 12698 12685 12825 12884 12739 12604 12511 12436 12445 12380 12398 12374 12299 12152 12002 11910 11810 11723 11604 11376 11517 11564 11731 11785 11977 12137 12152 12280 12217 12177 12200 12311 12317 12396 12295 12226 12259 12297 12392 12368 12377 12412 12385 12421 12294 12222 12128 12049 12029 12058 12136 12148 12303 12368 12259 12225 12189 12258 12222 12291 12380 12484 12410 12407 12384 12405 12479 12528 12605 12778 12884 12917 13017 13162 13311 13579 13643 13757 13981 14113 14158 14263 14263 14312
15062 15115 15239 15279 15417 15330 15342 15298 15356 15425 15451 15704 15856 15909 16033 16180 16359 16342 16448 16346 16359 16244 16182 16213 16156 16261 16444 16527 16623 16684 16787 16760 16784 16707 16552 16550 16389 16246 16112 15844 15680 15466 15298 15041 14871 14825 14871 14813 14716 14635 14407 14297 14080 14084 13992 13812 13669 13531 13436 13249 13063 12920 12803 12514 12324 12467 12476 12528 12553 12730 12787 12913 12928 12932 12838 12883 12983 12905 12896 12788 12728 12715 12781 12734 12762 12883 12944 13037 13207 13307 13356 13559 13670 13779 13972 14177 14266 14279 14190 14255 14170 14143 14202 14168 14052 14069 13974 13953 13829 13804 13695 13619 13510 13679 13790 13757 13761 13795 13864 13809 13740 13849 13850 13795 13794 13797 13754 13752 13657 13578 13632 13482 13415 13459 13488 13529 13473 13433 13487 13362 13286 13291 13279 13215 13111 13097 13117 13037 13004 12817 12694 12634 12453 12454 12489 12490 12561 12384 12299 12322 12314 12232 12146 12114 12130 12107 12203 12276 12279 12282 12410 12493 12652 12654 12788 12835 12890 12845 12705 12643 12550 12538 12558 12487 12414 12286 12173 12100 11976 11964 11790 11644 11465 11646 11703 11857 11950 12071 12265 12255 12317 12240 12280 12334 12245 12291 12443 12424 12415 12408 12398 12459 12606 12656 12650 12538 12593 12524 12384 12312 12126 12106 12182 12135 12197 12374 12393 12303 12245 12335 12390 12358 12318 12447 12517 12543 12555 12616 12590 12687 12741 12835 12902 13002 13136 13252 13420 13585 13722 13848 14079 14245 14361 14277 14294 14407 14416
15051 15113 15139 15285 15421 15425 15481 15427 15362 15448 15472 15602 15798 15896 15977 16170 16338 16354 16443 16350 16326 16301 16302 16206 16051 16181 16400 16487 16556 16640 16710 16692 16776 16642 16491 16493 16445 16354 16146 16005 15784 15644 15422 15251 15042 14992 14951 14817 14738 14646 14455 14390 14205 14144 13976 13861 13752 13678 13505 13339 13197 13046 12840 12560 12343 12458 12630 12712 12669 12820 12890 12997 12981 12963 12869 12906 12962 12899 12826 12722 12565 12588 12680 12788 12786 12914 12954 13112 13295 13395 13396 13601 13683 13874 13999 14186 14315 14279 14285 14399 14392 14320 14363 14387 14346 14303 14188 14101 13960 13861 13767 13738 13661 13721 13887 13940 13896 13957 13911 13964 13902 13895 13825 13869 13923 13868 13871 13781 13695 13730 13724 13602 13597 13588 13656 13696 13635 13611 13638 13543 13388 13385 13296 13310 13298 13304 13256 13174 12998 12885 12756 12695 12579 12647 12637 12552 12586 12447 12315 12264 12245 12165 12032 11992 12074 12164 12198 12227 12302 12428 12501 12590 12719 12713 12771 12888 12946 12881 12829 12739 12687 12640 12675 12671 12559 12364 12261 12186 12162 12050 11976 11719 11591 11688 11865 11963 12073 12172 12278 12395 12409 12347 12341 12374 12289 12412 12553 12516 12591 12572 12590 12676 12786 12821 12851 12774 12672 12620 12578 12508 12331 12257 12266 12249 12356 12378 12379 12311 12330 12368 12434 12415 12355 12453 12548 12676 12678 12691 12781 12783 12881 13003 13096 13253 13334 13405 13599 13808 13962 14074 14289 14365 14484 14486 14425 14462 14622
15074 15149 15291 15327 15453 15480 15542 15444 15439 15548 15533 15677 15817 15990 16099 16277 16500 16441 16358 16278 16203 16254 16269 16129 16007 16156 16405 16497 16562 16528 16526 16612 16660 16473 16325 16344 16198 16064 15997 15753 15607 15444 15349 15167 14959 14965 14945 14886 14870 14782 14660 14432 14283 14099 13940 13835 13737 13590 13505 13290 13183 12997 12764 12492 12326 12357 12428 12544 12519 12705 12836 12986 13049 12994 12850 12839 12877 12815 12788 12664 12540 12525 12670 12878 12983 12976 12985 13135 13288 13424 13446 13673 13882 14037 14075 14292 14372 14493 14464 14494 14519 14461 14459 14526 14484 14353 14210 14138 14105 14065 13991 13904 13835 13999 14080 14113 14003 13996 14134 14079 14031 14006 13993 14114 14153 14115 14109 14024 13933 13990 13971 13846 13792 13757 13819 13851 13865 13802 13674 13680 13599 13590 13587 13491 13493 13348 13258 13086 12958 12887 12794 12763 12672 12745 12653 12662 12578 12431 12345 12272 12286 12132 12086 12113 12191 12238 12358 12377 12389 12440 12611 12675 12737 12774 12878 12884 12992 12930 12803 12791 12830 12739 12744 12773 12718 12639 12551 12434 12353 12209 12176 12044 11909 11987 12024 12142 12130 12224 12392 12391 12461 12463 12533 12595 12530 12575 12597 12649 12616 12580 12622 12752 12866 12884 12900 12797 12725 12703 12714 12509 12398 12364 12449 12387 12457 12532 12517 12498 12615 12579 12575 12551 12640 12708 12711 12857 12929 12873 12864 12964 13029 13174 13223 13244 13347 13473 13648 13858 14025 14171 14288 14388 14549 14624 14623 14585 14729
15023 15231 15325 15478 15551 15616 15555 15525 15611 15629 15691 15792 15865 16034 16173 16323 16541 16413 16331 16247 16181 16159 16197 16181 16073 16179 16334 16381 16503 16529 16447 16442 16559 16374 16240 16109 16043 15957 15876 15654 15516 15397 15275 15158 14990 14971 14898 14895 14973 14853 14757 14558 14459 14172 13976 13813 13644 13631 13542 13385 13210 12989 12808 12518 12209 12294 12337 12342 12469 12576 12796 12982 13074 13055 12934 12945 12861 12774 12724 12557 12477 12538 12637 12888 13061 13121 13107 13181 13291 13471 13586 13812 14041 14105 14233 14371 14553 14619 14690 14670 14544 14612 14629 14589 14518 14425 14333 14295 14238 14270 14176 14148 14130 14246 14295 14267 14132 14126 14234 14238 14279 14235 14241 14314 14484 14381 14228 14211 14217 14193 14203 13993 13884 13958 13989 13954 14006 13941 13828 13733 13766 13781 13772 13776 13658 13381 13211 13107 12941 12910 12940 12869 12784 12844 12791 12679 12537 12412 12371 12321 12305 12207 12183 12277 12423 12400 12490 12502 12406 12530 12717 12769 12789 12849 12887 12957 13020 13020 12898 12935 13045 12924 12908 12883 12774 12698 12725 12621 12505 12450 12486 12398 12211 12196 12263 12243 12187 12372 12480 12501 12631 12753 12758 12715 12660 12569 12542 12695 12742 12732 12736 12911 13047 13020 12977 12977 12886 12864 12752 12584 12512 12583 12566 12587 12538 12684 12736 12698 12783 12817 12840 12770 12822 12908 12879 13025 13160 13128 13075 13118 13189 13234 13403 13408 13403 13588 13746 13922 14165 14228 14400 14479 14574 14624 14698 14769 14910
15065 15292 15456 15508 15595 15627 15660 15646 15701 15792 15785 15840 15934 16133 16229 16383 16537 16473 16406 16322 16156 16178 16216 16112 16115 16155 16285 16395 16456 16455 16377 16314 16432 16202 16112 15994 15886 15830 15802 15665 15447 15319 15266 15170 14997 15046 14987 14990 14980 14911 14865 14684 14499 14224 14153 13959 13713 13598 13523 13376 13240 12972 12666 12390 12152 12219 12265 12337 12460 12533 12748 12883 13033 12961 12985 12835 12769 12714 12710 12641 12545 12590 12679 12953 13069 13166 13251 13282 13375 13583 13685 13871 14040 14231 14415 14578 14677 14788 14760 14827 14768 14652 14625 14598 14583 14465 14458 14390 14397 14410 14476 14447 14386 14371 14403 14409 14419 14428 14498 14420 14483 14434 14458 14516 14597 14574 14512 14406 14380 14369 14402 14284 14060 14126 14180 14197 14230 14077 13978 13899 13903 13902 13807 13831 13811 13440 13238 13219 13090 13040 12960 12882 12840 12775 12777 12664 12600 12470 12346 12266 12261 12351 12365 12423 12498 12601 12689 12586 12611 12686 12843 12869 12906 12916 12995 12948 12926 13028 13053 13127 13150 13030 12990 13008 12963 12885 12947 12908 12736 12651 12702 12617 12493 12355 12309 12349 12255 12431 12590 12601 12640 12822 12790 12784 12808 12777 12670 12748 12816 12759 12829 12969 13067 13037 13030 13036 12988 12865 12783 12668 12623 12530 12572 12604 12570 12733 12856 12894 12962 13059 13049 13000 13099 13166 13195 13268 13363 13296 13257 13300 13267 13310 13476 13463 13571 13654 13837 14040 14188 14293 14484 14505 14694 14658 14769 14907 15124
15110 15260 15521 15676 15746 15813 15879 15945 15888 15863 15872 15994 16099 16153 16293 16387 16588 16471 16454 16322 16227 16193 16205 16180 16170 16199 16174 16276 16376 16378 16377 16248 16237 16059 15946 15838 15769 15708 15725 15560 15504 15331 15196 15151 15013 14995 15042 15039 15011 14895 14863 14640 14483 14317 14225 14012 13733 13658 13549 13411 13304 12920 12637 12433 12141 12083 12150 12226 12401 12536 12797 12914 12965 13013 12961 12804 12769 12738 12823 12728 12631 12652 12793 12989 13181 13259 13331 13436 13450 13590 13776 13952 14145 14405 14583 14756 14814 14856 14893 14911 14881 14741 14690 14659 14628 14548 14501 14550 14550 14630 14650 14637 14616 14611 14614 14569 14588 14652 14684 14696 14685 14621 14638 14706 14797 14825 14825 14742 14629 14543 14510 14433 14300 14382 14434 14444 14459 14283 14188 14159 14143 14021 13957 13934 13838 13584 13388 13291 13119 13000 13002 12912 12944 12869 12837 12730 12544 12485 12365 12265 12246 12344 12425 12470 12610 12675 12795 12734 12728 12824 12949 13024 13078 13043 13048 12952 12956 12998 13132 13132 13192 13130 13090 13074 13058 13128 13156 13141 13024 12937 12955 12759 12654 12572 12472 12470 12443 12606 12705 12719 12753 12900 12933 12874 12903 12837 12724 12732 12780 12817 12850 12941 13119 13069 12983 13006 13070 12922 12722 12730 12615 12597 12626 12676 12691 12760 12936 13034 13190 13181 13137 13182 13270 13351 13398 13436 13552 13439 13314 13365 13294 13437 13542 13636 13678 13766 13909 14071 14297 14415 14546 14566 14692 14785 14887 15080 15327
15178 15328 15452 15640 15698 15746 15820 16001 16007 15988 16076 16195 16306 16292 16373 16496 16724 16622 16479 16406 16324 16259 16296 16176 16147 16169 16144 16213 16260 16228 16197 16069 16103 15941 15769 15821 15812 15734 15729 15678 15595 15371 15271 15153 15072 15105 15071 15065 15007 14937 14776 14728 14609 14338 14238 14049 13855 13739 13630 13542 13442 13083 12674 12413 12175 12173 12282 12345 12364 12500 12691 12794 12889 12916 12987 12877 12858 12832 12853 12811 12671 12796 12894 13054 13264 13280 13359 13459 13607 13767 13855 14055 14248 14495 14724 14761 14797 14932 15003 14994 14995 14829 14860 14753 14770 14725 14622 14687 14760 14804 14787 14801 14782 14806 14728 14823 14765 14783 14823 14787 14824 14865 14809 14826 14845 14864 14992 14931 14762 14694 14662 14560 14374 14561 14573 14613 14696 14600 14387 14356 14284 14092 13983 13885 13808 13550 13425 13356 13252 13124 13037 13028 13079 12963 12929 12753 12590 12609 12500 12454 12414 12417 12502 12611 12637 12729 12903 12830 12865 12917 13047 13067 13097 13046 13059 12938 12934 13080 13203 13146 13181 13106 13144 13154 13120 13226 13214 13282 13261 13167 13091 13025 12893 12826 12687 12548 12507 12554 12659 12678 12752 12839 12888 12805 12859 12832 12759 12770 12734 12846 12941 13035 13084 13047 13098 13073 13157 12970 12817 12831 12699 12802 12891 12950 12919 13040 13118 13208 13298 13329 13332 13364 13462 13574 13581 13622 13793 13584 13446 13431 13403 13574 13723 13863 13858 13997 14087 14335 14510 14603 14661 14772 14802 14927 14996 15175 15463
15187 15330 15449 15612 15747 15796 15861 15981 16033 16119 16185 16349 16453 16440 16478 16559 16744 16638 16595 16411 16301 16268 16265 16166 16012 16060 16043 16068 16140 16074 15963 15940 15883 15846 15717 15764 15761 15738 15801 15807 15689 15480 15246 15114 15095 15075 15102 15056 15034 14959 14773 14702 14671 14444 14250 14115 13925 13762 13721 13533 13458 13147 12831 12576 12273 12263 12312 12358 12430 12495 12651 12797 12877 12897 12984 12969 12883 12924 12845 12760 12789 12887 12929 13172 13317 13339 13442 13616 13790 13872 14062 14140 14318 14486 14744 14772 14879 15003 15049 15012 15057 14972 14959 14831 14789 14838 14762 14911 14953 14984 15002 14984 15003 15021 14949 15034 15037 15059 15086 15039 15060 15034 15024 15003 14904 14957 15065 15082 15022 14849 14720 14613 14567 14686 14830 14903 14880 14815 14633 14486 14368 14249 14055 13916 13819 13621 13505 13459 13314 13175 13086 13051 13116 13043 12909 12780 12710 12655 12595 12531 12479 12525 12581 12668 12775 12802 12885 12862 12892 12999 13042 13077 13212 13143 13144 12971 12925 13071 13188 13206 13102 13158 13133 13223 13309 13341 13325 13342 13386 13310 13253 13183 13068 12970 12842 12625 12514 12557 12593 12728 12806 12811 12756 12833 12814 12759 12719 12716 12797 12814 12945 12970 13118 13079 13102 13109 13214 13154 13011 12860 12737 12825 13042 13076 13152 13230 13202 13243 13330 13369 13424 13562 13673 13732 13733 13803 13942 13830 13656 13588 13536 13754 13907 13983 14094 14234 14277 14466 14647 14693 14852 14864 14990 15085 15084 15286 15496
15180 15339 15549 15703 15817 15922 16096 16058 16160 16266 16291 16414 16597 16559 16641 16744 16838 16647 16589 16469 16404 16386 16321 16213 16040 15964 15957 16006 15989 15835 15804 15826 15836 15715 15605 15673 15717 15755 15727 15703 15609 15471 15240 15231 15127 15148 15082 15027 14954 14834 14744 14621 14620 14430 14269 14099 14057 13909 13741 13613 13485 13085 12759 12545 12339 12298 12301 12322 12400 12477 12695 12838 12918 12890 12937 12942 12833 12904 12990 12837 12832 12904 13016 13208 13464 13549 13618 13791 13903 14020 14116 14139 14298 14474 14700 14779 14961 15027 15047 15070 15163 15081 15040 14947 14945 14911 14949 15067 15144 15169 15121 15211 15383 15294 15197 15226 15173 15172 15238 15254 15314 15229 15228 15139 15080 15169 15197 15183 15120 14945 14816 14817 14819 14874 14931 15003 14969 14863 14712 14496 14393 14277 14193 13983 13853 13744 13643 13502 13419 13344 13233 13160 13028 12999 12873 12819 12728 12695 12698 12587 12588 12692 12649 12778 12945 12990 13028 13012 13051 13106 13081 13073 13159 13124 13194 13069 12988 13159 13203 13243 13152 13228 13260 13309 13362 13397 13388 13358 13387 13336 13212 13183 13184 13014 12894 12788 12658 12681 12701 12742 12734 12652 12668 12743 12878 12900 12837 12762 12726 12808 12900 13012 13142 13105 13215 13130 13187 13051 12998 12962 12899 12953 13126 13237 13372 13452 13488 13499 13453 13566 13548 13666 13842 13897 13866 13982 14002 13970 13840 13813 13796 13969 14080 14165 14282 14417 14529 14668 14828 14880 15064 15116 15147 15184 15208 15378 15642
15258 15454 15720 15903 15996 16101 16246 16246 16275 16343 16521 16577 16708 16784 16850 16877 16837 16726 16664 16557 16445 16437 16338 16242 16052 15946 15942 15787 15742 15717 15680 15672 15737 15706 15611 15689 15660 15597 15634 15633 15653 15493 15345 15225 15117 15131 15041 14969 14852 14847 14773 14665 14644 14456 14325 14157 14077 13878 13782 13560 13388 13016 12736 12574 12298 12320 12335 12404 12476 12566 12711 12817 12948 12872 12880 12895 12802 12953 13010 12990 12979 13076 13194 13296 13503 13656 13726 13960 14078 14129 14183 14255 14291 14463 14692 14819 15009 15036 15149 15204 15151 15214 15239 15155 15126 15096 15154 15179 15320 15330 15356 15458 15638 15566 15559 15418 15404 15467 15473 15457 15514 15414 15417 15242 15172 15246 15314 15288 15259 15178 15034 15026 15039 15078 15161 15091 15109 14969 14788 14559 14383 14333 14248 14060 13965 13837 13750 13741 13637 13400 13277 13207 13053 12959 12867 12871 12874 12791 12745 12743 12676 12767 12732 12879 13032 13033 13116 13205 13189 13242 13249 13206 13135 13183 13137 13089 13133 13152 13275 13195 13198 13259 13321 13358 13311 13279 13347 13413 13501 13378 13271 13289 13256 13117 12916 12782 12745 12705 12691 12721 12626 12639 12685 12756 12838 12927 12900 12788 12737 12725 12824 12929 13087 13174 13202 13215 13167 13104 13031 13107 13084 13129 13203 13323 13479 13513 13675 13697 13662 13706 13746 13910 13958 14003 14091 14159 14150 14070 14040 14081 13998 14192 14356 14421 14568 14643 14680 14857 14967 15115 15182 15236 15240 15355 15418 15586 15808
15374 15533 15712 15932 15982 16169 16276 16241 16334 16507 16670 16695 16656 16717 16919 16904 16947 16812 16753 16629 16567 16459 16410 16290 16145 16014 16011 15914 15926 15861 15887 15808 15702 15688 15709 15699 15799 15687 15703 15675 15713 15489 15378 15242 15089 15032 15080 14999 14956 14913 14841 14792 14684 14538 14243 14078 13998 13784 13734 13557 13422 13133 12777 12575 12353 12390 12542 12617 12649 12703 12837 12991 13073 13087 13097 13120 13096 13104 13068 13122 13215 13317 13432 13553 13657 13854 13926 14090 14345 14362 14421 14466 14509 14678 14838 15018 15147 15208 15272 15205 15204 15216 15254 15189 15078 15144 15335 15425 15423 15493 15488 15543 15731 15717 15681 15518 15515 15567 15608 15612 15677 15544 15553 15503 15405 15409 15418 15372 15262 15210 15144 15066 15071 15088 15153 15208 15218 15075 14944 14667 14457 14370 14303 14144 14022 13972 13930 13854 13733 13588 13374 13293 13184 13013 12977 12993 12888 12862 12708 12771 12642 12812 12867 13027 13138 13129 13101 13211 13323 13343 13379 13408 13349 13330 13339 13319 13358 13390 13368 13292 13344 13289 13368 13337 13427 13323 13308 13431 13579 13501 13366 13283 13265 13157 13059 13046 12905 12869 12939 12894 12809 12865 12898 12995 13044 13130 13128 12973 12893 12990 13098 13125 13257 13377 13386 13371 13367 13370 13338 13421 13407 13440 13486 13591 13603 13598 13721 13841 13899 13994 13946 13968 14009 14146 14243 14255 14234 14230 14201 14207 14177 14326 14496 14626 14718 14812 14887 15036 15071 15071 15162 15228 15303 15322 15433 15719 15919
15375 15610 15804 15879 16064 16166 16331 16292 16380 16498 16699 16638 16700 16753 16898 16925 16938 16869 16912 16797 16769 16560 16378 16234 16145 16066 16047 16072 16179 16127 16017 15904 15750 15782 15882 15843 15828 15813 15720 15676 15759 15584 15488 15277 15096 15070 15141 15054 15081 15040 14929 14858 14729 14525 14235 14015 13803 13770 13758 13690 13496 13135 12888 12635 12433 12528 12677 12747 12780 12893 12880 13008 13076 13201 13278 13355 13316 13212 13237 13347 13411 13472 13568 13693 13765 14004 14224 14349 14512 14580 14623 14753 14786 14869 14954 15060 15213 15269 15300 15242 15248 15194 15180 15143 15098 15235 15447 15569 15590 15547 15598 15735 15845 15808 15779 15710 15729 15761 15848 15776 15767 15736 15654 15640 15552 15517 15408 15408 15369 15313 15287 15238 15194 15236 15156 15271 15267 15186 14986 14760 14649 14523 14410 14192 14097 14081 14045 14008 13852 13654 13584 13425 13287 13132 13005 12985 12988 12880 12791 12797 12686 12884 13047 13154 13267 13286 13210 13343 13426 13455 13534 13509 13520 13551 13563 13467 13486 13578 13573 13428 13395 13347 13381 13426 13440 13453 13382 13471 13608 13530 13416 13387 13266 13299 13314 13246 13111 13056 13114 13012 12985 12998 13100 13128 13158 13172 13270 13194 13084 13200 13304 13413 13444 13507 13574 13689 13690 13605 13610 13673 13814 13737 13741 13777 13755 13794 13868 14071 14225 14249 14178 14125 14153 14170 14316 14320 14420 14350 14402 14322 14300 14464 14545 14699 14974 15053 15076 15122 15050 15090 15197 15201 15320 15436 15514 15708 15943
15408 15597 15883 15940 16086 16180 16358 16381 16545 16617 16680 16611 16651 16743 16960 17075 17066 16996 17010 16953 16865 16687 16519 16393 16264 16216 16204 16199 16271 16166 16147 16062 15910 15950 15929 15888 15887 15810 15711 15728 15646 15591 15453 15334 15157 15081 15175 15154 15146 15084 14943 14795 14663 14428 14256 13951 13759 13670 13595 13566 13491 13181 12958 12627 12388 12458 12641 12771 12839 12920 12903 13005 13178 13333 13336 13433 13524 13375 13382 13541 13572 13695 13703 13768 13870 14092 14309 14474 14712 14759 14798 14865 14994 14986 15016 15188 15346 15388 15333 15332 15263 15290 15267 15204 15179 15238 15452 15570 15610 15666 15690 15847 15946 15989 15971 15871 15893 15995 16042 15992 15984 15875 15869 15785 15796 15705 15603 15528 15464 15503 15473 15418 15306 15290 15224 15300 15288 15177 14967 14861 14718 14588 14423 14191 14137 14131 14140 14066 13965 13716 13610 13469 13317 13206 13096 13166 13108 13089 12996 12918 12847 12964 13115 13173 13259 13371 13416 13488 13503 13571 13638 13726 13637 13747 13755 13641 13597 13613 13614 13466 13445 13434 13374 13393 13529 13491 13555 13549 13654 13665 13524 13451 13344 13466 13411 13393 13361 13324 13346 13294 13335 13319 13346 13372 13466 13417 13499 13433 13341 13454 13493 13566 13555 13687 13753 13882 13886 13943 13914 13940 14101 13970 14001 13990 13883 13933 14130 14244 14410 14443 14318 14312 14298 14374 14499 14490 14657 14631 14554 14478 14370 14527 14685 14875 15063 15093 15107 15053 15152 15195 15304 15298 15432 15531 15627 15791 15952
15541 15705 15872 15936 16022 16121 16303 16414 16621 16653 16750 16658 16660 16797 16978 17127 17220 17124 17059 17079 17021 16853 16619 16428 16323 16379 16383 16419 16395 16360 16286 16112 16004 15995 15925 15968 16042 15906 15819 15667 15620 15568 15402 15295 15241 15113 15091 15086 15154 15106 14972 14802 14642 14417 14171 13971 13731 13685 13518 13514 13393 13192 12929 12663 12396 12527 12715 12819 12953 12954 12966 13045 13212 13365 13435 13489 13650 13573 13605 13683 13793 13881 13933 13977 14071 14289 14521 14700 14815 14967 15071 15078 15136 15168 15182 15255 15418 15390 15389 15356 15208 15303 15318 15318 15224 15342 15513 15587 15610 15688 15809 15914 16124 16069 16100 15970 15942 16083 16156 16239 16242 16146 16079 16054 16033 15845 15708 15631 15614 15587 15566 15417 15297 15298 15372 15259 15212 15082 15004 14912 14875 14623 14465 14258 14172 14137 14159 14100 13973 13801 13574 13378 13269 13276 13227 13320 13337 13182 13154 13061 12920 13113 13202 13257 13319 13467 13519 13572 13675 13717 13853 13904 13881 13948 13949 13845 13778 13668 13631 13500 13482 13480 13412 13428 13555 13586 13642 13728 13743 13749 13656 13538 13522 13592 13600 13552 13616 13602 13641 13580 13574 13508 13543 13687 13709 13701 13624 13591 13507 13574 13710 13748 13695 13805 13965 14025 14210 14201 14260 14239 14295 14243 14278 14180 14052 14156 14285 14456 14536 14590 14576 14581 14477 14597 14709 14714 14797 14774 14663 14657 14528 14634 14811 14923 15134 15085 15112 15086 15174 15181 15290 15366 15526 15595 15688 15813 15930
15579 15797 15861 15977 16079 16165 16303 16427 16646 16646 16650 16665 16734 16866 16991 17088 17273 17198 17155 17175 17135 16957 16817 16640 16437 16424 16422 16439 16522 16475 16422 16286 16183 16073 15953 16037 16018 15928 15798 15672 15620 15627 15517 15450 15332 15209 15222 15143 15069 14991 14960 14835 14658 14400 14220 14067 13846 13677 13527 13465 13388 13245 12916 12705 12506 12682 12788 12937 13113 13104 13148 13302 13329 13509 13593 13736 13823 13765 13830 13957 14009 14081 14182 14206 14332 14528 14702 14856 15030 15094 15306 15314 15246 15262 15354 15345 15413 15376 15431 15410 15238 15357 15394 15380 15355 15399 15486 15636 15663 15822 15967 16102 16189 16209 16126 16062 16096 16161 16315 16328 16245 16195 16210 16249 16175 15972 15830 15821 15774 15648 15607 15417 15287 15380 15338 15372 15273 15196 15080 14993 14983 14756 14528 14475 14402 14322 14185 14132 14014 13897 13591 13494 13315 13277 13356 13350 13385 13246 13173 13175 13040 13134 13221 13249 13412 13429 13538 13614 13695 13801 13878 13892 13973 13974 14062 13934 13950 13885 13762 13691 13672 13604 13599 13732 13767 13801 13795 13806 13804 13818 13731 13686 13732 13736 13762 13766 13818 13780 13768 13841 13756 13742 13716 13772 13818 13822 13746 13743 13688 13664 13726 13780 13822 13871 14100 14118 14274 14389 14416 14525 14517 14440 14438 14491 14408 14464 14518 14568 14718 14672 14595 14659 14698 14691 14771 14822 14908 14801 14734 14744 14683 14790 14915 15018 15109 15162 15129 15202 15391 15387 15416 15483 15543 15574 15624 15749 15822
15592 15821 15948 15986 16126 16274 16328 16472 16580 16601 16657 16761 16809 16904 17024 17200 17295 17242 17191 17166 17172 17083 16957 16752 16589 16517 16559 16589 16725 16676 16517 16352 16314 16136 16023 16065 15991 15850 15828 15787 15692 15663 15608 15553 15472 15388 15277 15149 15062 15024 14934 14751 14639 14384 14243 14098 13889 13798 13608 13505 13461 13269 12979 12843 12602 12792 12902 13134 13259 13364 13417 13483 13521 13624 13846 13902 13950 13995 14018 14135 14196 14248 14404 14546 14611 14778 14869 14977 15136 15218 15419 15410 15468 15408 15445 15461 15517 15492 15551 15475 15321 15399 15432 15426 15387 15422 15497 15558 15724 15997 16153 16199 16374 16252 16209 16208 16206 16265 16426 16408 16338 16303 16393 16429 16381 16211 16078 15931 15911 15853 15702 15500 15400 15466 15420 15366 15216 15162 15133 15029 14993 14894 14696 14591 14563 14383 14294 14216 14110 13940 13689 13549 13461 13392 13366 13360 13370 13286 13247 13231 13149 13201 13206 13323 13384 13487 13657 13726 13730 13836 13893 14020 14127 14072 14089 14128 14053 13976 13995 13907 13808 13822 13901 13927 13871 13896 13831 13833 13760 13828 13847 13850 13823 13871 13983 13946 13937 14001 13987 14036 14029 13884 13847 13910 13980 13940 13925 13804 13748 13728 13827 13911 13937 14015 14170 14289 14467 14569 14699 14687 14667 14609 14629 14700 14651 14633 14718 14801 14810 14741 14728 14793 14968 14932 14898 14956 15009 14901 14804 14755 14819 14981 15060 15059 15161 15162 15261 15397 15530 15575 15650 15603 15681 15702 15666 15665 15758
15669 15865 16003 16104 16260 16383 16484 16491 16574 16556 16591 16748 16816 16953 17117 17224 17252 17131 17099 17099 17210 17105 16993 16758 16675 16731 16697 16678 16818 16772 16653 16538 16374 16277 16148 16061 15980 15939 15866 15815 15791 15671 15633 15588 15523 15382 15211 15135 15087 15038 14881 14705 14639 14347 14207 14057 13951 13766 13584 13496 13538 13302 13074 13006 12801 12954 13062 13236 13306 13482 13528 13581 13646 13733 13924 13977 14148 14156 14224 14309 14288 14411 14613 14828 14895 14960 15057 15171 15215 15319 15503 15485 15547 15576 15601 15616 15626 15604 15619 15463 15339 15438 15564 15582 15551 15477 15511 15594 15747 15993 16206 16345 16399 16401 16317 16294 16408 16435 16513 16485 16544 16517 16446 16478 16423 16313 16113 16100 16074 15889 15764 15563 15456 15492 15415 15368 15295 15145 15074 15032 14975 14884 14656 14691 14646 14539 14470 14293 14179 13996 13855 13768 13678 13650 13610 13503 13462 13369 13261 13327 13327 13378 13402 13377 13395 13572 13687 13728 13840 13979 13983 14079 14144 14161 14156 14174 14283 14173 14127 14003 13946 14005 14063 14024 14001 14023 13971 13952 13893 13893 13924 13901 13955 14057 14069 14149 14200 14190 14244 14173 14199 14151 14060 14045 14071 14029 14075 14002 13959 13901 14013 13993 14032 14131 14304 14419 14643 14714 14803 14874 14819 14854 14913 14939 14809 14841 14929 14956 14890 14840 14865 14975 15127 15110 15198 15170 15131 14998 14955 15044 15059 15142 15067 15152 15267 15244 15379 15483 15610 15650 15637 15624 15696 15737 15717 15728 15798
15737 15907 16111 16296 16357 16493 16521 16528 16523 16520 16574 16705 16786 16969 17103 17196 17278 17180 17088 17128 17136 17064 16974 16870 16866 16807 16822 16782 16814 16714 16670 16532 16490 16332 16303 16140 15960 15948 15962 15884 15912 15789 15748 15750 15702 15467 15224 15142 14999 14914 14763 14659 14620 14389 14234 14027 13887 13743 13643 13569 13554 13434 13213 13061 12894 13051 13159 13374 13465 13504 13521 13668 13722 13821 13982 14140 14235 14339 14347 14418 14472 14703 14875 15011 15133 15247 15296 15335 15409 15558 15678 15712 15725 15745 15740 15750 15722 15655 15686 15583 15450 15523 15641 15624 15651 15583 15630 15703 15866 16042 16218 16332 16443 16518 16544 16484 16552 16627 16606 16626 16637 16577 16604 16528 16568 16367 16225 16184 16138 15984 15950 15784 15524 15534 15530 15446 15346 15237 15096 14941 14875 14808 14725 14723 14758 14638 14556 14400 14364 14191 14057 13934 13804 13719 13759 13676 13522 13458 13399 13365 13452 13448 13473 13448 13495 13577 13693 13874 14016 14011 14099 14120 14131 14226 14244 14255 14393 14321 14247 14154 14016 14018 14135 14064 14111 14129 14056 14049 13969 13972 13990 14043 13985 14095 14160 14289 14351 14305 14377 14405 14340 14353 14272 14210 14089 14125 14163 14159 14081 14108 14116 14160 14236 14426 14513 14617 14746 14916 14995 15032 15095 15181 15165 15137 15036 15026 15053 15050 14937 14988 15011 15079 15276 15301 15384 15347 15341 15244 15169 15191 15191 15246 15196 15335 15399 15414 15494 15517 15663 15707 15627 15554 15602 15624 15760 15724 15722
15867 15994 16196 16264 16340 16431 16565 16581 16669 16657 16657 16784 16800 16928 17069 17130 17246 17103 17042 17186 17233 17039 16961 16949 16825 16859 16886 16906 16899 16795 16616 16603 16487 16339 16342 16198 15993 15917 15878 15861 15790 15739 15635 15577 15580 15412 15196 15035 14884 14833 14822 14741 14619 14493 14307 14081 13986 13872 13645 13521 13495 13420 13259 13043 12939 13125 13329 13412 13515 13610 13720 13753 13876 14013 14082 14207 14261 14353 14453 14494 14585 14818 14868 14962 15155 15147 15213 15337 15354 15533 15638 15707 15753 15878 15957 15934 15928 15885 15921 15834 15630 15799 15856 15917 15885 15780 15829 15938 16005 16124 16233 16373 16369 16536 16527 16568 16581 16629 16632 16661 16713 16616 16523 16498 16447 16415 16285 16242 16306 16157 16045 15885 15644 15677 15645 15534 15422 15335 15236 15133 15002 14933 14903 14835 14778 14735 14592 14502 14546 14365 14260 14039 13902 13884 13830 13814 13740 13693 13627 13573 13568 13622 13661 13631 13621 13746 13738 13972 14107 14128 14224 14219 14244 14275 14385 14422 14538 14476 14404 14412 14318 14357 14361 14349 14249 14267 14208 14181 14136 14226 14156 14184 14123 14192 14335 14409 14491 14548 14557 14549 14471 14494 14423 14400 14382 14496 14530 14469 14413 14458 14339 14447 14476 14678 14779 14889 14958 15090 15113 15215 15268 15372 15321 15257 15202 15285 15304 15230 15083 15200 15199 15331 15368 15384 15437 15363 15336 15292 15274 15332 15302 15376 15321 15419 15532 15533 15661 15645 15740 15736 15726 15650 15727 15791 15801 15816 15791
15986 16056 16235 16396 16436 16443 16565 16629 16802 16754 16833 16829 16901 16987 17032 17079 17210 17173 17070 17156 17222 17127 17036 16895 16826 16902 16887 16902 16910 16781 16573 16526 16456 16334 16324 16156 16074 16020 15856 15767 15713 15656 15606 15515 15512 15308 15099 14951 14846 14816 14783 14706 14674 14549 14314 14206 14024 13939 13758 13585 13495 13365 13182 13147 13061 13219 13373 13465 13579 13757 13908 14005 14139 14072 14097 14247 14292 14442 14543 14650 14816 14875 14962 15042 15168 15164 15139 15276 15350 15517 15626 15771 15892 15986 16072 16172 16162 16147 16116 15974 15929 16054 16097 16086 16091 16069 16044 16142 16114 16183 16288 16344 16423 16552 16561 16702 16721 16738 16700 16637 16698 16638 16516 16504 16445 16420 16374 16437 16414 16304 16072 15986 15779 15779 15803 15753 15599 15489 15485 15358 15255 15177 15017 15004 14916 14797 14683 14624 14643 14525 14384 14211 14003 14033 13946 14049 14071 13974 13901 13818 13790 13838 13894 13922 13863 13842 13897 14007 14121 14216 14304 14329 14375 14442 14528 14667 14714 14675 14528 14555 14623 14617 14636 14489 14372 14394 14481 14379 14390 14396 14336 14317 14369 14337 14411 14427 14529 14648 14680 14669 14672 14605 14618 14595 14683 14772 14831 14812 14744 14723 14633 14635 14740 14846 14996 14976 15049 15135 15347 15455 15513 15501 15517 15528 15417 15485 15537 15404 15337 15412 15416 15507 15541 15591 15553 15484 15414 15397 15270 15310 15287 15407 15456 15552 15618 15759 15785 15725 15779 15755 15855 15774 15783 15857 15904 15833 15889
16076 16138 16335 16426 16514 16523 16579 16762 16859 16895 16936 16986 17012 17047 17088 17197 17177 17187 17064 17093 17161 17129 17093 16894 16772 16763 16819 16911 16936 16771 16562 16483 16427 16245 16265 16127 16077 15921 15783 15705 15574 15576 15437 15503 15491 15237 15098 15066 14901 14844 14887 14729 14708 14518 14414 14320 14130 14038 13898 13758 13558 13400 13324 13324 13267 13338 13512 13633 13787 13922 14007 14119 14285 14272 14225 14318 14414 14538 14624 14773 14924 14923 15048 15161 15188 15201 15127 15261 15462 15592 15673 15805 15864 15956 16074 16243 16227 16295 16253 16238 16110 16251 16315 16214 16157 16087 16105 16168 16156 16248 16410 16505 16507 16623 16720 16746 16799 16750 16736 16723 16718 16643 16620 16573 16565 16440 16409 16450 16555 16499 16344 16130 16001 15871 15874 15765 15573 15500 15470 15513 15415 15307 15236 15101 15021 14908 14817 14737 14752 14598 14515 14322 14102 14153 14130 14170 14175 14215 14198 14034 13999 14079 14109 14134 14003 14018 14143 14136 14225 14254 14405 14475 14606 14573 14682 14676 14799 14819 14722 14822 14787 14863 14881 14711 14548 14643 14559 14525 14562 14641 14598 14553 14598 14687 14694 14730 14761 14731 14708 14751 14817 14856 14808 14800 14939 14940 15097 15054 14995 15040 14963 15015 15094 15060 15071 15099 15192 15316 15492 15543 15647 15630 15679 15750 15738 15766 15682 15537 15485 15577 15602 15600 15662 15690 15579 15575 15458 15479 15483 15438 15362 15475 15700 15693 15728 15790 15908 15908 15813 15829 15870 15872 15813 15759 15818 15868 15928
16064 16207 16310 16449 16578 16581 16707 16771 16952 16997 17048 17090 17185 17164 17230 17192 17077 17157 17138 17135 17157 17134 17084 16986 16780 16806 16839 16920 16943 16774 16535 16415 16336 16196 16121 16081 16047 15924 15711 15651 15533 15426 15391 15382 15438 15289 15222 15084 14863 14814 14886 14872 14795 14629 14488 14427 14328 14117 13928 13820 13617 13570 13460 13459 13367 13532 13576 13696 13925 13968 14072 14226 14308 14355 14370 14447 14481 14530 14667 14756 14947 15093 15130 15149 15116 15123 15236 15399 15508 15574 15719 15808 15897 15992 16202 16314 16361 16444 16429 16364 16411 16404 16446 16400 16302 16269 16124 16092 16176 16377 16463 16517 16557 16661 16778 16768 16850 16826 16714 16733 16629 16683 16716 16630 16578 16604 16524 16566 16714 16609 16550 16401 16230 15991 15872 15688 15613 15580 15519 15609 15596 15494 15449 15301 15246 15175 15073 14969 14904 14792 14653 14525 14296 14234 14256 14348 14407 14439 14383 14309 14291 14336 14348 14281 14264 14213 14269 14300 14375 14416 14563 14602 14754 14736 14721 14811 14883 14932 14941 14988 14986 14955 15021 14944 14851 14856 14766 14737 14743 14784 14745 14855 14934 14914 14997 14962 14881 14800 14821 14849 14845 14966 15014 15068 15174 15148 15246 15239 15289 15352 15370 15295 15333 15304 15241 15287 15263 15430 15585 15647 15700 15828 15884 15881 15983 15975 15882 15701 15618 15717 15692 15767 15824 15792 15705 15660 15616 15650 15657 15644 15510 15687 15832 15835 15966 15966 16079 16069 15973 15956 15969 15892 15742 15780 15829 15837 15946
16166 16280 16406 16574 16683 16731 16729 16837 16961 16958 17063 17130 17222 17233 17288 17279 17167 17212 17242 17227 17216 17125 17173 17140 16992 16883 16890 16928 16925 16843 16646 16536 16352 16258 16165 16149 16070 15901 15709 15572 15469 15409 15333 15453 15442 15349 15153 14973 14859 14838 14870 14826 14803 14654 14601 14483 14251 14128 14078 13980 13821 13695 13543 13546 13450 13568 13684 13799 14029 14133 14220 14423 14500 14609 14688 14722 14627 14813 14902 14900 14994 15102 15232 15204 15238 15305 15389 15502 15567 15635 15778 15852 16013 16154 16217 16344 16454 16484 16535 16506 16503 16515 16462 16488 16418 16373 16286 16283 16330 16519 16505 16549 16737 16751 16802 16812 16733 16705 16710 16641 16517 16653 16801 16723 16689 16686 16680 16772 16746 16768 16729 16537 16371 16186 16068 15896 15826 15838 15791 15808 15748 15651 15667 15566 15465 15455 15314 15189 15044 14944 14797 14717 14482 14421 14441 14509 14635 14659 14572 14516 14409 14508 14496 14514 14501 14406 14464 14430 14555 14541 14596 14661 14810 14869 14866 14918 14970 14969 15054 15033 15116 15110 15129 15079 15012 15004 14948 14980 14960 14974 14960 14978 15027 15036 15019 15057 15061 15068 14998 15030 15025 15126 15210 15265 15276 15343 15425 15521 15605 15596 15630 15524 15530 15456 15490 15473 15527 15574 15770 15809 15807 15876 16002 16025 16019 15946 16013 15843 15741 15829 15895 15846 15889 15773 15756 15753 15771 15731 15766 15743 15569 15758 15879 15963 16090 15960 15953 16000 15860 15903 15995 15945 15870 15858 15864 16039 16087
16253 16341 16499 16578 16757 16752 16644 16758 16863 17040 17157 17191 17174 17209 17288 17314 17237 17317 17295 17243 17253 17158 17190 17197 17103 17031 17004 17022 17027 16821 16703 16507 16285 16149 16128 16082 16038 15859 15784 15582 15509 15426 15404 15421 15367 15292 15195 15029 14929 14908 14826 14840 14923 14766 14680 14460 14291 14173 14147 14092 13985 13760 13582 13508 13520 13754 13898 13983 14123 14215 14332 14561 14775 14830 14897 14885 14895 15029 15088 15049 15116 15157 15286 15327 15306 15409 15613 15624 15633 15727 15873 16016 16099 16180 16327 16392 16442 16534 16594 16571 16511 16471 16512 16461 16538 16484 16531 16507 16581 16615 16567 16645 16807 16776 16765 16749 16680 16664 16722 16603 16517 16691 16770 16759 16756 16819 16807 16845 16841 16827 16792 16667 16492 16349 16204 16115 16071 16020 15959 15986 15915 15938 15894 15810 15732 15637 15485 15405 15240 15027 14939 14846 14651 14650 14607 14688 14744 14814 14788 14744 14637 14725 14739 14674 14620 14668 14646 14605 14610 14681 14744 14812 14935 14968 14965 15036 15021 15000 15071 15178 15176 15194 15257 15218 15098 15041 15093 15123 15176 15135 15210 15174 15090 15093 15163 15221 15241 15222 15241 15284 15228 15260 15290 15422 15503 15559 15707 15799 15867 15772 15794 15775 15792 15753 15843 15822 15846 15817 15854 15853 15962 15947 16053 16145 16131 16036 16040 15943 15902 15967 15988 15972 15889 15857 15929 15965 16028 15958 15900 15828 15645 15669 15804 15921 16116 16088 15953 15918 15867 15916 16071 15998 15968 15933 16020 16162 16248
16317 16352 16463 16570 16731 16751 16682 16806 16934 17013 17176 17213 17261 17279 17255 17328 17232 17305 17193 17304 17326 17192 17217 17254 17125 17094 17079 16975 16986 16811 16729 16506 16347 16329 16243 16143 15960 15924 15758 15671 15629 15489 15561 15482 15369 15337 15217 15145 14962 14935 14949 14922 14907 14795 14702 14516 14363 14223 14157 14148 14068 13896 13703 13603 13566 13798 13925 14061 14094 14258 14463 14709 14867 14995 15020 15141 15203 15266 15295 15240 15284 15297 15449 15451 15529 15669 15759 15769 15681 15808 15903 16065 16217 16273 16446 16434 16550 16618 16633 16648 16692 16597 16589 16605 16662 16692 16662 16710 16815 16714 16702 16753 16854 16881 16801 16724 16688 16692 16708 16728 16619 16598 16706 16741 16874 16883 16926 17019 17029 16914 16916 16806 16585 16545 16399 16323 16186 16110 16167 16091 16095 16042 16047 15933 15892 15791 15616 15456 15401 15170 15021 14935 14833 14782 14740 14891 14940 14952 14901 14777 14680 14814 14865 14788 14701 14738 14774 14745 14790 14882 14958 15001 14967 15085 15013 15015 15126 15134 15146 15238 15278 15374 15368 15416 15336 15236 15282 15258 15230 15242 15328 15239 15220 15317 15408 15404 15335 15337 15386 15413 15314 15393 15454 15570 15637 15746 15919 16004 16025 16059 16121 16094 16141 16040 16100 16112 16065 15975 16008 16022 16091 16220 16267 16380 16358 16330 16316 16215 16146 16109 16086 15975 15954 15974 16094 16114 16134 16055 15937 15822 15758 15797 15922 15938 16108 15986 15989 15899 15883 15951 16142 16097 16095 16033 16172 16284 16319
