16384 16361 16277 16315 16421 16429 16421 16362 16323 16260 16085 15931 15792 15680 15545 15491 15427 15441 15402 15470 15555 15557 15476 15461 15363 15309 15308 15294 15348 15152 15058 14926 14922 15039 15061 15128 15071 15082 15022 14998 15001 14912 14903 14995 14978 15057 15106 15260 15334 15356 15279 15250 15145 15051 14932 14822 14753 14762 14734 14744 14877 14763 14766 14776 14827 14955 14971 15013 14964 14936 14846 14769 14770 14824 14902 15019 15156 15107 14996 15056 15042 14965 15010 15076 15180 15265 15456 15467 15602 15751 15777 15851 15828 15836 15907 15937 16087 16101 16206 16267 16331 16226 16197 16113 16087 16307 16534 16690 16735 16770 16890 17004 17079 17156 17229 17217 17196 17268 17350 17370 17381 17340 17224 17129 17117 17093 17186 17077 17074 17202 17216 17275 17245 17138 16993 16916 16928 16813 16740 16555 16429 16342 16167 16075 16034 15788 15593 15420 15286 15151 14961 14823 14664 14406 14272 13981 13742 13550 13322 13231 13020 13056 13151 13131 13171 13415 13558 13710 13827 13764 13686 13739 13778 13886 13993 14007 14005 13896 13868 13901 13858 13752 13684 13571 13429 13404 13393 13320 13219 13203 13063 12945 12949 12987 13101 13105 13010 12973 12910 12999 13037 13214 13290 13472 13553 13563 13699 13725 13728 13746 13713 13657 13516 13558 13670 13635 13587 13548 13404 13343 13293 13278 13202 13054 12927 13080 13159 13314 13347 13625 13810 14010 14243 14395 14541 14597 14781 14910 14950 15090 15334 15482 15640 15725 15766 15804 15885 15944 16107 16037 16016 16134 16128 16259 16281 16383 16384
16506 16461 16435 16413 16478 16463 16484 16474 16339 16283 16078 15988 15832 15674 15561 15470 15476 15483 15424 15551 15625 15547 15438 15513 15439 15316 15341 15396 15528 15373 15235 15155 15022 15075 15022 15152 15154 15099 15064 15030 14993 14938 15000 15004 15054 15077 15156 15310 15534 15419 15378 15282 15105 14962 14875 14720 14635 14718 14742 14881 14891 14885 14817 14866 14806 14858 14859 14876 14788 14842 14752 14741 14680 14782 14949 14985 15148 15045 15037 15075 15139 15051 15085 15083 15211 15244 15458 15497 15681 15724 15835 15866 15833 15860 15902 16068 16155 16131 16242 16223 16269 16186 16163 16170 16173 16432 16594 16730 16774 16864 16968 16998 17058 17216 17248 17262 17139 17140 17222 17243 17215 17134 17133 17150 17066 17106 17108 17088 17036 17012 17053 17112 17126 17043 16897 16864 16825 16664 16600 16421 16296 16209 16092 15927 15884 15676 15496 15317 15215 15023 14834 14740 14557 14273 14133 13784 13500 13299 13130 12937 12746 12794 12913 13026 13040 13261 13460 13641 13790 13745 13645 13662 13720 13774 13860 13931 13935 13803 13692 13750 13749 13665 13472 13368 13260 13187 13165 13144 13099 13054 12969 12815 12803 12871 12900 12913 12936 12927 12844 12964 13014 13188 13239 13366 13568 13521 13561 13664 13641 13564 13506 13494 13410 13413 13568 13528 13613 13540 13359 13271 13247 13191 13075 12952 12933 13032 13016 13102 13210 13443 13763 13845 14113 14317 14454 14531 14664 14881 14932 15052 15173 15342 15436 15516 15672 15615 15660 15784 16003 15958 15955 16049 16063 16156 16154 16174 16230
16567 16595 16646 16569 16521 16507 16542 16510 16439 16312 16095 15973 15945 15856 15649 15593 15416 15416 15426 15487 15634 15542 15522 15471 15446 15432 15429 15490 15624 15485 15368 15208 15093 15129 15111 15245 15359 15257 15216 15071 14983 15016 15035 15130 15203 15258 15275 15412 15617 15449 15406 15309 15110 15035 14890 14724 14625 14761 14784 14908 14983 15007 14951 14850 14831 14704 14681 14670 14703 14714 14609 14568 14623 14751 14929 14953 15092 15075 15069 15149 15209 15206 15279 15163 15170 15254 15413 15538 15686 15804 15840 15796 15780 15903 15981 16149 16232 16187 16153 16131 16161 16147 16246 16188 16233 16417 16650 16725 16889 16862 16959 16943 17020 17178 17235 17253 17186 17124 17168 17072 17057 17076 17068 17082 17019 17060 17004 16973 16943 16895 16953 16979 17000 16899 16808 16727 16757 16627 16518 16348 16063 16018 15942 15907 15803 15670 15502 15368 15214 15026 14773 14592 14502 14250 14005 13614 13272 13078 12887 12718 12595 12719 12765 12873 12998 13197 13382 13536 13718 13747 13704 13688 13628 13753 13764 13772 13786 13654 13605 13654 13618 13504 13343 13228 13186 13082 12975 12932 12970 12848 12774 12726 12656 12673 12739 12821 12856 12888 12807 12853 13024 13156 13211 13343 13509 13491 13503 13548 13554 13357 13281 13266 13226 13347 13374 13514 13532 13426 13369 13347 13280 13193 13020 12982 12871 12864 12947 13102 13177 13352 13613 13734 13964 14213 14416 14567 14649 14781 14788 14850 14981 15038 15178 15285 15471 15552 15510 15652 15849 15911 15928 15983 15993 15994 15945 15984 16117
16650 16654 16673 16687 16695 16663 16522 16469 16436 16330 16079 16044 16063 15890 15675 15533 15350 15366 15383 15493 15627 15521 15527 15484 15491 15475 15565 15579 15672 15483 15377 15274 15201 15187 15326 15379 15406 15386 15298 15241 15115 15163 15129 15279 15336 15366 15388 15519 15589 15450 15404 15262 15140 15055 14879 14733 14720 14798 14803 14955 15044 14998 14915 14826 14760 14655 14705 14645 14621 14608 14627 14629 14614 14720 14877 14910 15014 14947 15003 15094 15234 15219 15304 15275 15192 15352 15445 15592 15795 15822 15880 15844 15876 15956 15958 16082 16188 16223 16172 16189 16114 16135 16094 16140 16232 16444 16522 16683 16852 16840 16899 16893 16955 17048 17209 17122 17187 17176 17045 17062 16981 16985 17013 17030 17047 17073 16984 16938 16961 16981 16943 16957 16961 16787 16739 16617 16640 16434 16315 16212 15899 15851 15795 15698 15649 15478 15384 15217 15145 14901 14705 14500 14357 14116 13823 13413 13086 12893 12801 12586 12427 12558 12684 12785 12910 13095 13215 13372 13591 13538 13506 13445 13442 13622 13692 13684 13645 13681 13617 13594 13587 13414 13309 13113 13072 12909 12837 12932 12915 12855 12689 12672 12605 12637 12603 12659 12640 12676 12771 12959 13065 13119 13190 13324 13466 13505 13450 13424 13363 13303 13213 13214 13178 13265 13316 13348 13480 13361 13333 13341 13228 13097 12963 12882 12667 12707 12877 13018 13063 13318 13567 13740 13881 14035 14310 14398 14451 14647 14739 14816 14909 15035 15140 15239 15348 15458 15415 15549 15640 15685 15806 15887 15933 15874 15862 15916 16022
16753 16725 16776 16818 16778 16678 16577 16498 16451 16325 16143 16095 16069 15924 15695 15490 15356 15412 15381 15433 15595 15621 15614 15500 15473 15569 15578 15600 15716 15503 15350 15274 15202 15351 15436 15460 15550 15464 15424 15335 15217 15161 15224 15312 15467 15478 15609 15600 15663 15561 15340 15262 15088 15033 14930 14866 14753 14870 14870 14954 15033 14944 14969 14828 14729 14690 14721 14580 14529 14523 14571 14630 14708 14670 14757 14790 14925 14933 15010 15183 15322 15265 15223 15228 15241 15378 15601 15669 15861 15893 15921 15909 15871 15910 15979 16138 16261 16246 16232 16229 16165 16124 16071 16132 16206 16409 16517 16730 16863 16867 16870 16979 17019 17109 17152 17080 17134 17122 16996 16906 16820 16852 16875 16904 17003 17015 17036 17077 16993 17030 16945 16845 16871 16753 16619 16569 16415 16293 16120 16035 15839 15733 15726 15579 15457 15390 15284 15135 15017 14851 14597 14415 14189 13866 13638 13374 13021 12836 12711 12511 12285 12447 12512 12695 12944 13032 13167 13221 13373 13363 13281 13292 13347 13439 13503 13575 13632 13571 13584 13473 13446 13341 13210 13009 12927 12844 12802 12883 12892 12770 12632 12653 12549 12620 12595 12583 12516 12637 12843 12960 12988 13054 13078 13182 13383 13376 13316 13175 13138 13125 13053 13061 13057 13157 13170 13285 13526 13444 13297 13314 13241 13035 12932 12765 12575 12623 12776 12846 13001 13319 13539 13699 13902 13942 14078 14246 14378 14471 14675 14743 14855 15007 15101 15142 15286 15344 15300 15463 15527 15582 15631 15757 15901 15903 15896 15930 15880
16832 16836 16853 16846 16801 16757 16658 16556 16408 16376 16211 16214 16109 16022 15821 15611 15501 15520 15504 15557 15641 15671 15613 15637 15581 15702 15788 15773 15803 15627 15514 15445 15348 15440 15516 15582 15568 15484 15511 15462 15407 15397 15469 15514 15575 15634 15691 15576 15641 15475 15421 15400 15315 15193 15042 15028 14834 14912 14908 15064 15087 15058 14983 14982 14887 14836 14727 14665 14583 14620 14566 14682 14745 14857 14908 14958 15051 15082 15224 15353 15350 15298 15311 15283 15225 15428 15523 15690 15824 15781 15857 15874 15782 15814 15970 16069 16203 16228 16183 16121 16162 16108 16015 16144 16178 16324 16502 16764 16868 16946 16950 17037 17105 17079 17168 17086 17087 17045 16960 16900 16710 16787 16776 16806 16954 16938 16903 16894 16904 16985 16937 16835 16838 16685 16502 16442 16356 16265 16145 16028 15910 15772 15637 15529 15463 15289 15222 15076 14989 14775 14475 14297 14066 13838 13644 13284 13050 12782 12586 12343 12119 12165 12329 12491 12628 12809 12849 13044 13144 13158 13135 13192 13260 13284 13378 13391 13518 13482 13452 13265 13231 13095 13025 12874 12758 12690 12686 12757 12793 12666 12438 12394 12417 12452 12533 12604 12548 12686 12823 12998 13057 13044 13072 13169 13371 13262 13208 13141 13069 13038 12981 12904 12892 13096 13095 13241 13463 13311 13148 13170 13218 13015 12871 12673 12564 12732 12804 12874 12978 13280 13478 13658 13750 13836 13844 14015 14193 14409 14510 14632 14685 14902 15037 15158 15288 15250 15346 15399 15604 15588 15705 15749 15901 15807 15833 15814 15891
17007 16984 17022 16928 16814 16856 16800 16648 16490 16367 16337 16244 16181 16095 15928 15817 15647 15622 15538 15588 15649 15710 15735 15711 15701 15777 15908 15924 15902 15821 15655 15649 15518 15450 15510 15551 15586 15577 15664 15712 15681 15605 15627 15595 15691 15706 15659 15624 15647 15462 15399 15382 15450 15383 15210 15170 15026 15088 15061 15078 15141 15132 15011 15018 15041 14890 14757 14697 14581 14568 14593 14694 14802 14895 14970 15012 15144 15262 15364 15414 15477 15478 15384 15309 15322 15442 15538 15573 15709 15744 15720 15718 15781 15832 15966 16129 16166 16161 16092 16106 16211 16070 16052 16073 16142 16301 16539 16732 16885 16992 17007 17052 17137 17071 17085 17043 17054 16923 16895 16797 16661 16754 16725 16778 16837 16818 16880 16877 16922 16904 16911 16806 16761 16607 16400 16352 16315 16223 16200 16017 15858 15702 15615 15489 15401 15287 15048 14961 14841 14618 14292 14149 13957 13822 13566 13319 12963 12638 12439 12192 11989 11970 12061 12241 12403 12566 12657 12802 12981 12962 12922 13085 13191 13207 13129 13174 13302 13277 13206 13078 12991 12982 12895 12851 12710 12634 12562 12546 12590 12420 12358 12299 12332 12364 12448 12506 12556 12741 12833 12977 13087 13165 13126 13242 13283 13249 13095 12973 12946 12976 13016 12941 12843 12995 13081 13250 13361 13277 13126 13086 13112 12984 12852 12712 12619 12767 12928 12988 13032 13261 13408 13492 13611 13610 13621 13862 14064 14230 14409 14474 14624 14816 14898 15026 15171 15192 15342 15402 15571 15710 15748 15801 15783 15723 15721 15828 15850
17059 17027 16987 17042 16961 16896 16932 16749 16676 16603 16597 16466 16294 16167 16092 15948 15762 15723 15577 15598 15568 15704 15671 15724 15766 15886 15925 15931 15920 15836 15693 15625 15604 15649 15708 15772 15701 15694 15749 15801 15751 15754 15648 15691 15711 15670 15643 15630 15652 15629 15581 15575 15483 15383 15340 15282 15091 15175 15113 15138 15027 15064 15065 15050 15088 14921 14768 14739 14604 14568 14641 14752 14738 14867 15012 15038 15212 15314 15368 15417 15499 15473 15473 15383 15419 15524 15556 15541 15655 15691 15722 15748 15764 15844 15986 16077 16049 16094 16132 16105 16157 16086 16107 16087 16138 16300 16491 16645 16857 16995 16943 17026 17165 17025 16957 16946 16955 16805 16833 16746 16697 16757 16725 16640 16735 16690 16675 16715 16745 16728 16736 16633 16627 16577 16407 16339 16240 16154 16127 15928 15759 15698 15623 15431 15349 15185 15018 14879 14665 14417 14212 14038 13888 13727 13447 13189 12881 12606 12332 12159 11857 11802 11849 12063 12150 12384 12496 12668 12813 12759 12770 12864 13050 12988 12964 12949 13046 12993 12870 12852 12836 12739 12735 12619 12594 12492 12398 12411 12497 12465 12428 12311 12219 12307 12327 12381 12474 12677 12826 12960 13094 13088 13036 13101 13157 13100 12994 12940 12799 12829 12849 12793 12792 12901 12917 13090 13229 13095 13049 13006 12930 12831 12717 12703 12591 12792 12904 12920 12966 13119 13340 13379 13412 13357 13382 13644 13804 13966 14256 14294 14451 14589 14746 14926 15008 15061 15251 15389 15514 15577 15610 15624 15745 15682 15686 15694 15818
17079 17055 17054 17119 17076 16963 16970 16911 16761 16782 16758 16590 16510 16355 16131 15942 15757 15718 15649 15632 15555 15638 15673 15700 15761 15925 15971 16010 15999 15953 15792 15782 15793 15889 15909 15898 15834 15886 15956 15933 15937 15821 15766 15651 15661 15651 15644 15732 15737 15653 15648 15615 15587 15510 15477 15350 15242 15271 15177 15108 15029 15049 15048 15084 15109 14952 14849 14761 14717 14703 14815 14862 14794 14952 14985 15148 15228 15250 15367 15423 15491 15443 15447 15584 15613 15651 15685 15627 15658 15620 15635 15609 15708 15807 15945 15922 16021 16012 16101 16085 16087 16152 16113 16141 16113 16185 16375 16611 16781 16938 16974 17076 17084 16971 16906 16786 16732 16750 16783 16691 16647 16658 16615 16574 16548 16565 16596 16615 16613 16616 16640 16542 16504 16481 16361 16303 16237 16179 16017 15834 15712 15578 15565 15430 15369 15148 14936 14732 14517 14317 14067 13905 13791 13505 13275 13036 12795 12611 12344 12089 11746 11716 11759 11860 11961 12139 12210 12418 12552 12633 12675 12725 12863 12831 12814 12829 12771 12666 12645 12688 12768 12587 12532 12472 12449 12430 12354 12421 12463 12456 12373 12260 12171 12247 12249 12359 12380 12556 12745 12916 13038 12961 12950 13054 13100 13083 12989 12905 12738 12723 12753 12708 12738 12778 12875 13102 13208 13027 12898 12863 12786 12726 12642 12598 12628 12827 12905 12892 12991 13057 13201 13227 13175 13217 13243 13447 13529 13749 14014 14229 14330 14480 14631 14796 14870 15041 15211 15259 15395 15448 15518 15571 15604 15667 15741 15676 15692
17143 17122 17133 17063 17078 17054 17112 16970 16883 16814 16779 16643 16638 16396 16241 16064 15905 15789 15824 15794 15770 15848 15923 16010 16067 16076 16161 16206 16217 16059 15939 15943 15946 15979 16073 15944 15939 16010 16121 16151 16158 16030 16028 15972 15914 15876 15810 15844 15879 15751 15651 15661 15711 15615 15548 15492 15353 15262 15268 15185 15080 15156 15129 15100 15178 14963 14948 14804 14746 14859 14881 14952 14894 14957 15045 15089 15114 15195 15201 15343 15370 15297 15305 15414 15478 15527 15570 15582 15702 15716 15632 15709 15714 15908 16001 16014 16012 16137 16177 16142 16123 16194 16223 16192 16257 16303 16385 16493 16696 16807 16940 16951 16961 16951 16958 16854 16736 16762 16752 16766 16721 16705 16689 16586 16574 16634 16537 16576 16509 16586 16524 16508 16405 16319 16327 16293 16220 16085 15977 15706 15586 15518 15344 15210 15146 15016 14825 14660 14484 14281 14018 13699 13552 13319 13167 12908 12697 12438 12136 11937 11766 11699 11690 11731 11842 12002 12132 12251 12407 12440 12480 12647 12762 12748 12708 12664 12703 12643 12569 12636 12580 12542 12423 12354 12294 12232 12213 12286 12241 12236 12301 12156 12104 12104 12120 12218 12449 12572 12714 12776 12889 12807 12873 12864 12994 12833 12774 12724 12646 12643 12629 12652 12624 12780 12805 12899 13033 12960 12779 12706 12718 12644 12617 12566 12507 12677 12716 12696 12763 12892 13042 12952 12933 12994 13151 13199 13303 13607 13879 13974 14177 14269 14458 14603 14662 14882 14966 15084 15194 15178 15278 15430 15433 15511 15554 15507 15611
17242 17180 17159 17035 17040 17113 17157 17125 17005 16905 16801 16766 16702 16541 16359 16180 15990 15963 15880 15955 15984 16060 16089 16130 16257 16193 16249 16247 16323 16154 16086 16006 16035 16040 16144 16091 16133 16134 16166 16231 16325 16298 16322 16235 16160 16048 15965 15946 16038 15915 15765 15845 15801 15755 15740 15511 15406 15401 15374 15272 15218 15226 15243 15195 15153 15033 14937 14903 14888 14972 15074 15008 14991 14997 15028 15037 15019 15091 15089 15236 15263 15297 15243 15303 15419 15452 15533 15566 15712 15674 15758 15777 15831 15862 16000 16067 16121 16250 16287 16255 16211 16209 16236 16208 16301 16374 16352 16433 16642 16774 16907 16906 16933 16993 16952 16864 16723 16649 16641 16682 16771 16664 16641 16618 16645 16629 16600 16561 16420 16533 16528 16469 16312 16278 16324 16261 16103 15994 15836 15686 15442 15380 15199 15044 14998 14816 14689 14505 14379 14093 13869 13552 13307 13129 12958 12794 12596 12300 12022 11968 11791 11737 11662 11598 11652 11912 12053 12224 12359 12338 12400 12514 12612 12583 12482 12542 12521 12538 12541 12556 12487 12424 12370 12236 12163 12136 12123 12072 12144 12148 12152 12045 11926 11951 12036 12180 12393 12513 12617 12670 12694 12722 12840 12794 12770 12701 12646 12626 12502 12556 12533 12605 12599 12689 12699 12870 12968 12860 12761 12703 12654 12576 12618 12498 12463 12451 12471 12487 12607 12755 12813 12854 12796 12873 12965 13012 13176 13418 13703 13823 13998 14177 14240 14333 14436 14637 14765 14965 15051 15046 15155 15258 15241 15298 15277 15384 15460
17353 17293 17268 17191 17108 17095 17178 17030 16954 16933 16772 16842 16819 16572 16457 16339 16142 16099 16158 16103 16030 16082 16210 16376 16509 16495 16457 16418 16395 16357 16302 16295 16244 16294 16430 16315 16414 16342 16399 16471 16480 16482 16504 16477 16373 16282 16202 16094 16056 15930 15838 15761 15754 15816 15788 15613 15530 15502 15551 15439 15357 15335 15245 15250 15069 15059 15063 15047 15102 15174 15138 15071 14960 15016 15070 15064 14961 15091 15137 15159 15186 15250 15222 15365 15361 15439 15534 15578 15630 15681 15790 15830 15859 15895 16098 16122 16199 16269 16439 16428 16391 16370 16271 16290 16289 16316 16444 16553 16613 16678 16840 16855 16976 16945 16877 16770 16626 16548 16557 16629 16749 16689 16734 16749 16690 16766 16730 16528 16410 16452 16329 16282 16210 16211 16210 16192 16037 15849 15746 15514 15395 15295 15056 14968 14910 14731 14596 14365 14139 13893 13650 13318 13116 12918 12641 12501 12446 12190 11901 11872 11703 11604 11611 11583 11648 11800 11947 12074 12279 12341 12441 12391 12446 12450 12430 12394 12266 12324 12229 12210 12180 12239 12245 12202 12097 11960 11906 11871 11908 11908 11978 11849 11821 11933 12010 12232 12373 12379 12450 12519 12546 12525 12601 12543 12570 12581 12461 12540 12434 12469 12427 12471 12413 12460 12586 12723 12854 12860 12713 12712 12638 12661 12576 12445 12365 12357 12425 12410 12450 12560 12697 12636 12577 12716 12852 12928 13096 13293 13376 13522 13668 13887 13954 14130 14253 14418 14573 14748 14921 14895 15002 15045 15043 15094 15183 15159 15318
17526 17445 17304 17186 17195 17195 17117 17010 17009 16903 16869 16818 16820 16652 16497 16385 16380 16324 16324 16248 16165 16258 16434 16578 16675 16640 16728 16684 16547 16509 16518 16488 16441 16479 16604 16580 16634 16534 16553 16588 16717 16673 16665 16579 16589 16491 16452 16286 16117 16021 15867 15788 15824 15833 15783 15775 15778 15709 15649 15577 15379 15371 15290 15245 15104 15053 15088 15118 15245 15249 15218 15152 15028 14998 14999 14974 15003 15058 15219 15272 15219 15204 15280 15345 15312 15416 15492 15482 15571 15689 15817 15840 15925 15966 16128 16234 16314 16361 16481 16453 16448 16442 16396 16352 16280 16406 16527 16512 16527 16581 16751 16870 17001 16927 16778 16728 16581 16565 16544 16582 16671 16741 16834 16814 16833 16806 16779 16608 16483 16315 16232 16233 16172 16105 16117 16039 16034 15853 15718 15450 15297 15186 14979 14912 14764 14654 14483 14223 14000 13699 13382 13169 12935 12737 12449 12305 12175 11981 11844 11755 11645 11606 11627 11632 11520 11678 11758 11948 12188 12354 12399 12347 12375 12363 12289 12226 12120 12113 12046 12011 11962 11939 12021 12047 11991 11833 11787 11718 11772 11741 11680 11769 11810 11994 12061 12167 12272 12256 12303 12391 12387 12404 12440 12359 12309 12361 12393 12393 12283 12262 12340 12299 12285 12329 12485 12631 12855 12831 12739 12673 12725 12640 12505 12478 12342 12339 12329 12310 12313 12428 12476 12421 12398 12553 12752 12858 12927 13069 13131 13295 13436 13542 13688 13882 13969 14170 14465 14659 14733 14771 14814 14895 14891 14920 14972 14971 15073
17716 17515 17383 17398 17341 17281 17148 17072 17059 16946 16898 16888 16832 16728 16658 16607 16478 16383 16376 16355 16383 16456 16632 16723 16783 16760 16808 16787 16771 16752 16729 16716 16608 16739 16782 16758 16831 16733 16702 16730 16892 16866 16812 16777 16746 16600 16581 16471 16315 16155 16039 15996 15986 15945 15912 15882 15864 15818 15697 15597 15471 15396 15236 15166 15184 15218 15162 15160 15292 15273 15129 15052 15044 15004 15069 15056 15031 15141 15151 15150 15275 15236 15252 15320 15301 15297 15376 15448 15539 15658 15753 15793 15807 15902 16065 16147 16221 16323 16273 16320 16431 16513 16517 16526 16522 16626 16660 16659 16659 16643 16743 16917 16958 16866 16860 16693 16617 16645 16627 16621 16704 16793 16770 16784 16782 16814 16763 16568 16492 16324 16262 16198 16155 16179 16088 16063 15969 15849 15702 15458 15208 15061 14796 14706 14585 14409 14319 14091 13840 13533 13243 13016 12800 12533 12354 12236 12162 11991 11766 11708 11629 11610 11489 11486 11383 11530 11750 11856 11985 12036 12057 12095 12118 12103 12165 12195 12124 11985 11946 11912 11825 11899 11866 11851 11929 11867 11783 11725 11616 11649 11741 11769 11695 11854 11870 11997 12160 12162 12214 12344 12418 12391 12431 12353 12337 12398 12463 12456 12364 12358 12283 12309 12348 12418 12586 12667 12796 12764 12679 12643 12621 12562 12462 12442 12364 12359 12375 12287 12306 12317 12426 12300 12282 12500 12691 12690 12821 12968 12995 13089 13291 13399 13600 13690 13816 14025 14169 14290 14475 14552 14503 14589 14649 14669 14795 14853 14873
17800 17636 17591 17544 17542 17370 17248 17155 16987 16919 16915 16848 16848 16819 16693 16693 16683 16571 16542 16513 16526 16636 16862 16829 16857 16935 16909 16846 16875 16899 16816 16851 16858 16960 16972 16892 16929 16863 16854 16926 17091 17031 17024 16979 16863 16747 16632 16538 16497 16354 16210 16261 16207 16099 15987 15908 15863 15865 15853 15689 15518 15444 15276 15211 15141 15234 15278 15322 15310 15268 15112 15127 15151 15053 15063 15077 15134 15135 15108 15151 15267 15327 15331 15328 15389 15341 15379 15382 15462 15599 15671 15713 15748 15979 16112 16099 16153 16220 16185 16218 16356 16463 16557 16605 16691 16714 16682 16615 16667 16720 16794 16884 17034 16971 16853 16756 16702 16652 16719 16618 16615 16740 16810 16825 16750 16750 16636 16592 16545 16431 16296 16241 16083 16124 16080 16028 15903 15742 15571 15299 15030 14825 14700 14595 14449 14232 14029 13862 13618 13321 13059 12903 12676 12497 12294 12133 12064 11892 11722 11652 11585 11568 11454 11390 11334 11442 11675 11771 11884 11867 11837 11972 11982 11964 12057 12067 12048 11952 11889 11897 11816 11797 11820 11801 11901 11812 11784 11678 11553 11627 11690 11690 11573 11716 11743 11871 11996 12070 12235 12289 12360 12382 12304 12393 12480 12490 12443 12447 12325 12297 12328 12340 12298 12393 12594 12749 12795 12744 12704 12670 12580 12504 12505 12398 12312 12351 12360 12279 12207 12196 12253 12226 12256 12356 12530 12572 12671 12828 12888 13001 13135 13324 13462 13472 13575 13735 13897 14116 14295 14248 14267 14266 14384 14462 14502 14522 14670
18088 17879 17814 17719 17701 17598 17407 17320 17103 16995 17048 16932 16923 16921 16859 16759 16689 16667 16740 16638 16729 16887 17048 17030 16979 17052 16952 17003 17056 16976 17017 17073 17037 17160 17144 17173 17133 17125 17008 17033 17166 17140 17189 17043 16977 16964 16847 16716 16678 16436 16331 16358 16241 16209 16076 15972 16021 15991 15910 15781 15554 15509 15274 15182 15114 15195 15246 15269 15424 15292 15226 15169 15192 15200 15095 15063 15070 15050 15095 15213 15341 15369 15437 15352 15424 15356 15463 15413 15432 15512 15701 15746 15741 15951 15969 16132 16178 16206 16258 16280 16380 16455 16610 16686 16778 16825 16889 16841 16839 16883 16922 17066 17105 16961 16890 16754 16711 16633 16615 16685 16611 16689 16800 16751 16794 16770 16641 16564 16618 16606 16476 16266 16118 16042 16034 15825 15677 15617 15452 15235 14973 14680 14546 14423 14261 14082 13844 13596 13466 13298 13045 12784 12514 12398 12139 11989 11907 11790 11627 11461 11375 11418 11427 11369 11268 11361 11547 11530 11652 11672 11662 11744 11869 11954 11969 12006 11970 11899 11710 11787 11673 11681 11669 11696 11758 11728 11677 11626 11507 11552 11613 11576 11434 11482 11582 11662 11808 11977 12022 12178 12324 12287 12193 12345 12437 12413 12373 12339 12240 12246 12291 12301 12277 12432 12483 12624 12603 12644 12490 12439 12414 12472 12432 12376 12236 12287 12228 12133 12072 12193 12181 12136 12127 12147 12284 12455 12511 12676 12755 12870 12951 13143 13311 13348 13535 13591 13758 13949 14140 14033 14117 14164 14258 14199 14253 14303 14443
18274 18096 17970 17918 17801 17727 17605 17455 17221 17107 17117 17120 17075 17043 17034 16958 16816 16879 16840 16806 16852 16952 17152 17172 17198 17124 17120 17138 17123 17168 17132 17195 17276 17283 17397 17307 17321 17348 17271 17201 17240 17277 17258 17230 17112 17133 17073 16985 16803 16629 16558 16466 16385 16333 16163 16116 16057 15983 15906 15845 15685 15547 15385 15180 15069 15175 15200 15261 15428 15345 15282 15301 15343 15309 15226 15120 15098 15138 15133 15258 15366 15459 15440 15462 15363 15417 15449 15544 15524 15568 15633 15747 15827 15889 15941 16118 16170 16200 16209 16303 16315 16469 16708 16764 16907 16948 16987 16952 16934 17002 16993 17119 17136 17122 17004 16877 16758 16755 16636 16674 16731 16797 16798 16727 16774 16740 16658 16653 16737 16680 16568 16385 16176 16008 15964 15705 15562 15354 15237 15088 14928 14619 14434 14193 14021 13812 13632 13453 13360 13117 12926 12745 12451 12237 12085 11910 11774 11588 11457 11346 11278 11392 11419 11345 11313 11361 11307 11271 11338 11316 11419 11565 11705 11825 11827 11807 11873 11769 11650 11624 11604 11589 11506 11587 11574 11521 11450 11408 11430 11492 11501 11389 11331 11334 11365 11533 11608 11764 11923 12051 12243 12260 12199 12325 12410 12381 12313 12276 12176 12230 12181 12245 12242 12396 12497 12523 12506 12487 12342 12278 12317 12288 12300 12212 12223 12172 12157 12166 12064 12075 12060 12022 12003 12040 12106 12267 12454 12522 12719 12745 12756 12941 13151 13310 13377 13540 13588 13747 13886 13846 13909 13942 14089 14014 14042 14071 14186
18212 18085 17958 17922 17896 17768 17590 17441 17242 17147 17183 17151 17250 17210 17093 17046 16980 17081 17008 17090 17077 17178 17264 17270 17285 17298 17338 17374 17380 17397 17290 17313 17411 17377 17416 17344 17271 17255 17197 17193 17194 17214 17176 17184 17192 17234 17132 17003 16898 16758 16571 16585 16457 16452 16312 16238 16071 15956 15865 15782 15784 15712 15529 15263 15169 15188 15246 15265 15447 15296 15239 15346 15433 15411 15260 15182 15147 15145 15110 15238 15438 15478 15473 15465 15380 15388 15496 15499 15586 15549 15688 15690 15805 15941 16036 16157 16199 16249 16372 16414 16438 16467 16618 16792 16867 16974 16990 16977 16991 17046 16976 17100 17175 17061 17055 16935 16724 16679 16603 16674 16719 16687 16666 16681 16648 16662 16566 16596 16689 16613 16482 16357 16178 15974 15877 15669 15420 15180 15112 14928 14769 14581 14418 14165 13901 13794 13576 13452 13306 13090 12867 12642 12480 12233 12086 11939 11740 11653 11547 11454 11370 11391 11348 11305 11289 11362 11429 11321 11344 11491 11560 11564 11678 11756 11772 11791 11779 11639 11587 11631 11554 11507 11414 11459 11452 11474 11476 11494 11404 11376 11396 11375 11441 11472 11446 11547 11555 11756 11887 12027 12273 12271 12154 12212 12333 12306 12185 12140 12150 12200 12134 12235 12245 12288 12475 12462 12469 12384 12395 12311 12208 12251 12288 12321 12279 12198 12206 12163 12163 12149 12144 12070 11945 12084 12175 12248 12323 12349 12523 12706 12734 12802 12987 13214 13253 13370 13446 13541 13736 13737 13748 13802 13911 13919 13847 13917 14110
18249 18160 18013 17933 17971 17714 17573 17330 17173 17123 17141 17245 17400 17280 17276 17128 17075 17225 17260 17227 17295 17326 17385 17400 17406 17388 17478 17507 17545 17559 17551 17540 17506 17451 17409 17352 17279 17258 17234 17242 17222 17220 17192 17159 17251 17238 17143 16966 16896 16809 16694 16640 16550 16497 16441 16333 16208 16016 15908 15879 15880 15757 15566 15402 15224 15246 15322 15300 15403 15296 15300 15425 15523 15413 15406 15278 15242 15203 15193 15390 15471 15474 15436 15409 15353 15400 15530 15568 15540 15564 15654 15756 15847 15920 16121 16139 16189 16264 16413 16458 16480 16504 16640 16795 16828 16875 16986 16983 17091 17069 17022 17164 17289 17151 17001 16839 16758 16681 16643 16707 16677 16579 16537 16493 16546 16559 16586 16563 16567 16449 16387 16184 16097 16005 15805 15587 15247 15022 14924 14752 14656 14486 14302 14118 13887 13760 13580 13427 13317 13105 12831 12643 12451 12285 12100 11863 11710 11678 11654 11583 11389 11273 11244 11295 11298 11413 11440 11364 11361 11516 11643 11642 11686 11679 11777 11750 11733 11665 11590 11508 11487 11429 11374 11412 11369 11395 11452 11469 11435 11365 11404 11413 11528 11501 11594 11554 11535 11730 11821 12037 12181 12150 12225 12223 12285 12197 12136 12119 12069 12140 12141 12145 12163 12258 12345 12368 12353 12321 12323 12299 12180 12177 12191 12300 12327 12311 12241 12284 12236 12220 12224 12150 12006 12128 12134 12142 12167 12260 12406 12578 12658 12735 12899 13067 13115 13145 13259 13315 13462 13529 13475 13597 13765 13673 13675 13770 13962
18195 18103 18032 17940 17929 17672 17536 17321 17155 17284 17324 17395 17549 17523 17516 17407 17208 17367 17499 17480 17477 17509 17534 17552 17607 17500 17540 17628 17632 17570 17554 17663 17618 17482 17436 17348 17258 17237 17317 17248 17295 17333 17365 17294 17206 17231 17231 17070 17016 16983 16836 16746 16721 16529 16458 16345 16143 16052 16010 15981 15947 15711 15516 15323 15282 15271 15428 15360 15433 15355 15309 15446 15500 15486 15524 15339 15296 15269 15221 15404 15428 15481 15395 15341 15361 15462 15487 15413 15425 15486 15538 15783 15913 15992 16044 16123 16081 16285 16375 16514 16516 16639 16661 16764 16831 16845 16895 17020 17122 17091 17017 17142 17324 17209 17064 16939 16806 16752 16711 16741 16617 16549 16461 16462 16446 16489 16479 16396 16448 16276 16185 16028 15977 15794 15658 15406 15126 14945 14839 14665 14552 14324 14261 14058 13919 13671 13564 13407 13279 13106 12885 12634 12366 12238 12171 11991 11768 11663 11610 11494 11388 11314 11264 11240 11257 11303 11440 11376 11360 11487 11618 11611 11639 11648 11662 11679 11688 11535 11511 11458 11425 11320 11341 11361 11357 11435 11472 11403 11371 11407 11572 11490 11556 11628 11657 11640 11649 11722 11780 11930 12083 12156 12124 12213 12229 12288 12254 12238 12117 12173 12249 12160 12104 12203 12313 12267 12330 12300 12250 12232 12163 12193 12170 12251 12321 12310 12273 12246 12312 12255 12237 12085 12074 12074 12151 12179 12077 12223 12337 12450 12641 12734 12797 12895 12878 12962 13067 13187 13213 13332 13314 13357 13474 13541 13527 13654 13777
18043 18075 18109 18032 17985 17761 17502 17408 17255 17355 17387 17560 17740 17690 17701 17584 17434 17563 17702 17691 17748 17719 17735 17708 17722 17666 17705 17771 17751 17766 17672 17708 17728 17599 17535 17362 17294 17321 17294 17384 17354 17428 17434 17351 17290 17300 17294 17243 17216 17169 17085 16986 16884 16644 16516 16394 16178 16178 16136 16013 15988 15787 15517 15351 15219 15349 15492 15456 15517 15508 15395 15499 15524 15573 15548 15391 15329 15351 15282 15388 15470 15426 15449 15440 15349 15422 15422 15383 15349 15389 15529 15746 15910 15957 16089 16083 16098 16207 16364 16490 16651 16686 16611 16639 16714 16769 16802 17005 17117 17113 17094 17184 17293 17190 17009 16972 16857 16821 16741 16724 16610 16571 16472 16473 16471 16444 16292 16299 16250 16083 16019 15914 15789 15592 15443 15190 15027 14888 14721 14516 14437 14214 14118 13926 13863 13669 13482 13468 13345 13081 12881 12592 12340 12317 12203 12060 11819 11705 11626 11495 11478 11330 11220 11160 11209 11283 11342 11452 11465 11543 11617 11555 11572 11500 11506 11550 11587 11483 11441 11377 11251 11214 11226 11266 11331 11418 11464 11390 11423 11573 11637 11589 11630 11734 11765 11744 11689 11715 11854 11922 12013 12078 12137 12195 12250 12226 12291 12224 12164 12179 12249 12216 12172 12244 12219 12271 12281 12217 12055 12024 12052 12114 12236 12245 12362 12412 12345 12290 12341 12237 12240 12070 12026 12106 12126 12126 12106 12167 12212 12318 12547 12564 12640 12618 12712 12754 12857 12940 13052 13100 13121 13183 13290 13333 13424 13482 13538
18114 18123 18136 18074 17986 17776 17580 17394 17237 17355 17537 17719 17841 17779 17786 17759 17589 17801 17867 17851 17869 17877 17926 17840 17817 17789 17805 17775 17839 17823 17799 17788 17934 17710 17612 17509 17322 17330 17370 17322 17380 17338 17297 17349 17335 17324 17339 17285 17313 17193 17106 17044 16890 16730 16557 16407 16243 16196 16153 16051 16069 15924 15703 15590 15462 15570 15610 15602 15579 15513 15465 15460 15517 15616 15609 15557 15508 15518 15482 15563 15610 15548 15513 15534 15455 15502 15435 15462 15438 15502 15578 15694 15871 15993 16085 16193 16168 16262 16396 16393 16544 16577 16628 16722 16799 16796 16759 16898 17067 17120 17201 17299 17364 17181 16945 16972 16849 16817 16800 16711 16509 16367 16303 16325 16378 16320 16253 16334 16310 16149 15908 15849 15649 15542 15399 15223 14981 14819 14666 14478 14295 14136 14031 13894 13654 13516 13372 13317 13221 12970 12678 12543 12371 12254 12182 12110 11914 11755 11676 11572 11466 11411 11369 11307 11200 11380 11396 11455 11547 11521 11540 11497 11457 11399 11422 11410 11464 11414 11411 11302 11172 11140 11202 11221 11225 11363 11377 11346 11461 11513 11595 11686 11644 11727 11796 11789 11768 11826 11993 11931 11904 11964 11948 12043 12127 12098 12213 12121 12002 12059 12229 12147 12153 12205 12124 12162 12167 12073 12025 12060 12108 12113 12184 12237 12338 12323 12309 12293 12190 12192 12136 12134 12083 12163 12067 12202 12224 12206 12262 12297 12390 12448 12581 12555 12575 12656 12757 12854 12935 13038 13053 13188 13214 13157 13246 13357 13488
18136 18063 18065 17998 18053 17841 17585 17464 17342 17459 17633 17789 17872 17926 17895 17832 17759 17951 18041 18036 18081 18113 18051 17933 17861 17895 17828 17887 17933 17868 17871 17964 18017 17901 17721 17538 17437 17506 17496 17413 17301 17302 17275 17352 17309 17225 17265 17262 17365 17262 17140 16943 16823 16784 16628 16423 16268 16175 16192 16117 16084 15980 15878 15767 15642 15672 15706 15646 15657 15618 15651 15596 15526 15592 15596 15676 15632 15581 15570 15676 15707 15726 15638 15595 15590 15542 15417 15468 15407 15589 15654 15708 15825 16002 16137 16188 16195 16247 16313 16358 16469 16572 16689 16745 16799 16788 16830 16937 17028 17146 17243 17356 17359 17184 16975 16963 16896 16798 16788 16646 16428 16301 16263 16295 16337 16293 16309 16282 16331 16075 15898 15779 15620 15449 15344 15081 14931 14711 14612 14347 14165 14074 13928 13775 13548 13390 13311 13167 13056 12818 12600 12429 12292 12217 12086 12032 12003 11809 11731 11540 11411 11417 11420 11333 11293 11438 11483 11467 11511 11424 11419 11372 11369 11411 11458 11389 11440 11398 11257 11155 11044 11044 11152 11202 11158 11243 11377 11393 11401 11568 11671 11691 11667 11757 11758 11876 11891 11951 12020 11999 11891 11891 11843 11889 11920 11964 12068 11902 11855 11953 12144 12165 12152 12098 12005 12042 12016 12099 12058 12053 12104 12190 12212 12275 12297 12256 12279 12211 12159 12099 12147 12131 12223 12192 12126 12231 12290 12331 12304 12293 12221 12315 12434 12457 12444 12549 12631 12729 12843 12944 13059 13100 13073 13036 13092 13319 13422
18131 18069 18004 17923 17970 17880 17681 17555 17514 17559 17657 17894 18086 18062 18088 18049 18031 18049 18102 18043 18099 18042 18067 17952 17978 18019 18043 18035 17999 18071 18086 18102 18102 18046 17890 17719 17560 17578 17520 17500 17349 17324 17236 17314 17353 17324 17311 17357 17352 17182 17021 16881 16792 16713 16552 16453 16247 16186 16153 16107 16083 15923 15867 15802 15763 15682 15657 15684 15575 15638 15608 15592 15672 15691 15640 15658 15709 15647 15600 15767 15802 15775 15776 15658 15640 15592 15528 15544 15485 15573 15598 15663 15743 15903 16112 16126 16140 16275 16406 16408 16463 16544 16733 16827 16791 16822 16907 16949 17116 17124 17145 17226 17289 17123 16887 16936 16840 16717 16753 16539 16302 16254 16109 16189 16136 16249 16219 16247 16208 15981 15874 15688 15495 15342 15118 14910 14798 14659 14571 14275 14101 13955 13682 13632 13431 13289 13204 13018 12971 12768 12600 12472 12322 12165 12073 12001 12044 11987 11839 11552 11377 11447 11457 11440 11387 11414 11500 11537 11483 11375 11355 11354 11399 11424 11355 11244 11231 11183 11137 11068 10977 11075 11122 11155 11060 11096 11260 11356 11409 11427 11543 11647 11639 11695 11732 11863 11855 11957 12071 12028 11857 11904 11829 11857 11894 11929 11837 11813 11702 11815 11995 12077 12125 11976 11928 12026 11999 12014 12126 12139 12100 12194 12183 12165 12141 12112 12152 12122 11995 12021 12042 12053 12204 12200 12179 12183 12249 12248 12258 12197 12175 12090 12144 12166 12241 12382 12406 12570 12678 12744 12874 12904 12975 12969 12996 13200 13284
18206 18108 17946 17963 17887 17800 17689 17653 17573 17662 17793 17981 18181 18245 18273 18283 18340 18279 18239 18152 18181 18147 18059 18048 18059 18070 18157 18144 18178 18229 18319 18321 18283 18146 17959 17888 17779 17660 17651 17522 17375 17368 17249 17230 17298 17254 17332 17360 17377 17159 17006 16955 16827 16624 16502 16340 16291 16162 16145 16130 16097 15943 15867 15887 15872 15847 15729 15689 15556 15547 15641 15664 15717 15653 15675 15689 15684 15651 15722 15744 15868 15909 15838 15746 15594 15549 15622 15537 15507 15509 15615 15740 15785 15859 16017 16164 16200 16379 16451 16486 16475 16650 16703 16831 16884 16927 16980 17001 17078 17023 17076 17089 17171 16960 16878 16853 16772 16711 16592 16399 16183 16058 16052 16025 16035 16107 16222 16186 16190 15951 15730 15554 15307 15155 14933 14838 14759 14596 14475 14249 13961 13711 13546 13468 13309 13294 13172 12964 12874 12822 12659 12518 12363 12234 12157 12068 12081 12013 11850 11650 11393 11508 11517 11585 11558 11569 11550 11543 11513 11459 11388 11413 11357 11335 11256 11169 11096 11004 10905 10904 10917 10986 10971 10998 10982 11020 11046 11232 11325 11402 11492 11482 11552 11686 11707 11855 11943 11998 12012 11959 11889 11823 11725 11697 11744 11799 11733 11748 11653 11825 11943 11985 12042 12011 11959 11999 11973 12033 12137 12098 12132 12082 12109 12093 12077 12060 12036 11978 11938 11919 11958 12079 12204 12238 12169 12242 12331 12193 12151 12146 12073 11960 11951 11966 12026 12103 12170 12348 12413 12548 12706 12749 12755 12862 12882 12987 13133
18154 18179 18062 18034 18095 17912 17802 17737 17711 17741 17859 18097 18273 18260 18258 18355 18313 18419 18393 18347 18309 18226 18172 18163 18234 18277 18257 18385 18422 18488 18518 18574 18606 18418 18128 18013 17980 17811 17679 17563 17385 17302 17269 17287 17240 17223 17296 17298 17416 17263 17073 17011 16983 16743 16595 16550 16407 16338 16250 16187 16162 16101 16064 16022 15970 15840 15738 15757 15721 15702 15772 15799 15763 15758 15686 15726 15775 15865 15902 15898 15980 15891 15819 15825 15695 15662 15749 15703 15574 15626 15837 15863 15885 16024 16235 16299 16266 16464 16523 16508 16527 16695 16805 16940 16964 17036 17043 17108 17117 17093 17090 17199 17249 17052 16948 16902 16795 16676 16552 16296 16116 16073 16078 16039 16018 16071 16137 16097 16009 15814 15565 15402 15295 15086 14932 14855 14706 14461 14316 14083 13860 13621 13430 13250 13113 13125 12998 12957 12868 12719 12610 12490 12439 12266 12097 12118 12066 11866 11744 11504 11372 11456 11557 11555 11545 11472 11490 11592 11597 11505 11475 11370 11345 11292 11133 11160 11051 10998 10901 10862 10885 11001 11082 11115 11101 11163 11213 11278 11281 11449 11516 11558 11521 11619 11695 11834 11830 11831 11883 11861 11826 11763 11737 11708 11718 11748 11759 11786 11754 11735 11787 11917 11990 12034 12011 11961 11899 11975 11960 11910 11975 12036 12057 12002 12022 12063 12010 11938 11907 11953 11901 11919 12026 12097 12087 12190 12255 12212 12109 12126 12132 12024 12041 11979 12036 12154 12189 12270 12210 12465 12614 12632 12584 12643 12609 12793 12910
18198 18143 18186 18210 18200 18051 17961 17911 17813 17919 18021 18137 18276 18222 18267 18371 18387 18527 18550 18506 18489 18419 18330 18374 18337 18393 18451 18504 18600 18667 18846 18797 18832 18645 18402 18208 18069 17887 17659 17561 17477 17375 17398 17248 17219 17243 17292 17323 17401 17315 17136 17133 17017 16881 16801 16752 16587 16530 16384 16327 16223 16238 16200 16123 16110 16040 15857 15897 15856 15914 15856 15919 15937 15850 15758 15735 15787 15902 15964 15941 16013 15919 15849 15865 15764 15781 15796 15721 15579 15827 15975 16025 16039 16162 16340 16429 16402 16452 16488 16580 16601 16782 16894 17012 17105 17089 17085 17177 17148 17115 17167 17254 17283 17154 17070 16981 16834 16605 16500 16363 16109 16032 16005 15930 15961 15957 16037 15944 15784 15640 15482 15436 15285 15100 14922 14816 14726 14440 14276 13929 13689 13497 13235 13068 12927 12867 12838 12801 12741 12668 12634 12573 12429 12270 12090 12048 11999 11807 11666 11481 11420 11486 11539 11494 11469 11448 11552 11623 11568 11575 11505 11449 11330 11266 11099 11099 11013 10906 10793 10816 10928 11048 11124 11166 11128 11252 11326 11335 11289 11449 11553 11599 11615 11626 11749 11756 11721 11689 11764 11721 11785 11838 11779 11739 11694 11750 11713 11734 11800 11788 11758 11770 11841 11937 11946 11934 11843 11815 11885 11818 11773 11801 11887 11913 11910 11962 11987 11968 11841 11899 11856 11900 11906 11971 12082 12195 12287 12145 12097 12177 12140 12136 12011 11976 12052 12111 12135 12188 12116 12261 12415 12452 12369 12389 12465 12659 12742
18218 18239 18225 18328 18307 18179 18129 18041 17885 17950 18049 18238 18380 18426 18385 18403 18429 18493 18568 18602 18580 18494 18500 18581 18574 18628 18622 18754 18742 18845 19063 19072 19037 18744 18472 18295 18226 18100 17847 17717 17546 17523 17562 17344 17210 17210 17251 17301 17319 17276 17181 17103 16998 16897 16962 16869 16738 16638 16494 16350 16225 16239 16270 16211 16231 16091 16087 16093 15994 16049 16099 16042 15997 15905 15874 15944 15887 15935 16008 15981 16073 16007 15848 15817 15844 15786 15763 15789 15719 15853 16023 16121 16311 16363 16452 16502 16542 16514 16611 16644 16760 16770 16893 16930 17081 17050 17025 17046 17152 17078 17115 17169 17283 17100 17071 16945 16801 16658 16587 16437 16154 16063 16085 15972 15875 15835 15939 15752 15621 15556 15406 15339 15215 14977 14842 14643 14605 14336 14168 13876 13615 13401 13240 12948 12796 12854 12865 12726 12697 12635 12545 12464 12418 12315 12131 11967 11870 11816 11692 11554 11518 11462 11434 11427 11376 11448 11515 11534 11550 11573 11456 11469 11319 11301 11156 11044 10925 10801 10816 10841 10900 10998 11051 11133 11136 11293 11347 11289 11252 11380 11461 11518 11579 11549 11555 11632 11531 11516 11616 11705 11760 11764 11735 11698 11619 11542 11560 11722 11791 11771 11836 11852 11817 11878 11899 11895 11867 11774 11787 11689 11733 11677 11755 11831 11839 11879 11861 11860 11865 11852 11797 11865 11918 11954 12132 12189 12195 12172 12078 12082 11999 11933 11878 11978 12005 12053 11965 12076 12048 12248 12263 12291 12272 12316 12416 12512 12638
18284 18305 18204 18319 18377 18263 18250 18112 17952 18071 18133 18333 18528 18491 18433 18474 18502 18559 18705 18675 18663 18731 18733 18676 18689 18794 18796 18941 19006 19040 19193 19163 19167 18935 18644 18474 18377 18219 17948 17825 17712 17644 17605 17387 17248 17199 17167 17258 17307 17181 17138 17027 17040 16988 17024 16967 16840 16756 16559 16407 16347 16283 16244 16272 16309 16256 16213 16194 16153 16249 16245 16117 16095 16069 16051 16038 16054 16003 16018 16056 16106 15953 15913 15876 15882 15833 15763 15833 15795 15927 16172 16372 16475 16399 16450 16532 16670 16665 16757 16833 16826 16818 16832 16981 17095 17080 17062 17039 17030 17008 17005 17141 17211 17130 16974 16926 16824 16715 16585 16487 16275 16173 16129 16050 15874 15824 15726 15564 15464 15360 15306 15176 15048 14875 14680 14528 14484 14354 14156 13894 13651 13393 13164 12883 12643 12673 12784 12772 12758 12659 12559 12542 12411 12208 12048 11908 11749 11692 11706 11575 11519 11525 11429 11372 11372 11445 11558 11476 11498 11494 11384 11427 11415 11264 11181 11035 10839 10781 10815 10808 10908 10996 11091 11127 11195 11298 11333 11302 11271 11280 11348 11501 11554 11517 11452 11521 11466 11433 11517 11555 11630 11659 11575 11536 11461 11417 11502 11583 11784 11758 11837 11845 11817 11870 11867 11849 11832 11716 11690 11611 11618 11541 11574 11586 11675 11793 11847 11858 11779 11808 11727 11803 11820 11969 12057 12050 12132 12024 11942 11912 11983 11950 11828 11904 11891 11940 11898 12011 12060 12181 12182 12204 12121 12243 12246 12427 12532
18235 18208 18246 18282 18366 18237 18254 18154 18086 18060 18145 18394 18565 18518 18610 18643 18605 18719 18806 18744 18731 18766 18740 18787 18782 18793 18766 18901 19042 19088 19121 19178 19273 19032 18772 18592 18511 18309 18178 17972 17881 17784 17687 17480 17327 17258 17252 17276 17232 17240 17204 17135 17107 17047 17026 16951 16907 16929 16735 16601 16571 16515 16436 16403 16419 16372 16279 16355 16356 16340 16471 16320 16202 16276 16260 16163 16091 16147 16225 16234 16155 16103 16209 16125 16085 15998 15989 15993 15945 16117 16226 16405 16613 16585 16602 16707 16819 16878 16871 16868 16943 16864 16892 17032 17160 17032 17008 16950 16973 17044 17089 17020 17081 16976 16838 16869 16803 16706 16569 16349 16177 16086 15947 15904 15710 15626 15532 15311 15218 15160 15054 15001 14820 14683 14567 14443 14475 14161 13913 13688 13552 13299 13147 12805 12593 12594 12709 12601 12656 12572 12445 12412 12362 12148 12039 11894 11659 11722 11695 11665 11604 11546 11367 11337 11389 11407 11517 11538 11586 11548 11460 11335 11326 11276 11104 11007 10869 10902 10855 10789 10881 10986 11086 11197 11234 11192 11229 11320 11314 11262 11380 11362 11408 11331 11336 11413 11455 11392 11460 11509 11554 11523 11433 11443 11490 11445 11552 11696 11848 11875 11856 11861 11821 11875 11973 11862 11806 11782 11754 11678 11626 11539 11541 11557 11597 11696 11718 11787 11770 11740 11750 11754 11880 11863 11970 11990 12043 11950 11964 12006 12016 11920 11854 11865 11913 11912 11870 12026 12071 12099 12199 12143 12093 12161 12130 12123 12174
18145 18233 18310 18378 18325 18196 18148 18148 18219 18186 18267 18429 18599 18633 18685 18752 18769 18826 18781 18724 18690 18777 18873 18899 18804 18855 18848 18895 18991 19079 19099 19219 19277 19068 18861 18758 18571 18503 18380 18173 17980 17984 17869 17743 17506 17448 17403 17353 17221 17272 17210 17190 17264 17131 17046 17044 17081 17068 16945 16822 16779 16638 16517 16457 16502 16465 16458 16534 16561 16520 16591 16533 16399 16437 16399 16357 16218 16234 16327 16274 16331 16352 16387 16325 16338 16277 16131 16222 16197 16200 16285 16515 16686 16766 16802 16899 16971 16959 16866 16864 16970 17012 16956 17135 17246 17087 17014 17034 16977 16996 17097 16996 17010 16877 16783 16863 16845 16617 16506 16369 16136 15932 15805 15674 15535 15404 15292 15129 15015 14962 14855 14730 14708 14623 14520 14437 14408 14088 13775 13508 13334 13169 13044 12802 12588 12594 12552 12517 12570 12445 12344 12310 12384 12222 11993 11855 11689 11784 11762 11740 11612 11474 11414 11466 11414 11368 11400 11510 11628 11589 11477 11361 11200 11205 11119 11008 10849 10916 10863 10857 10863 10995 11060 11095 11211 11160 11235 11268 11300 11331 11346 11257 11244 11260 11241 11347 11373 11361 11348 11395 11525 11463 11397 11413 11457 11508 11647 11748 11939 11827 11752 11784 11790 11819 11971 11913 11797 11729 11734 11650 11641 11631 11611 11513 11411 11501 11479 11644 11708 11644 11701 11756 11882 11867 11927 12007 11999 11953 11934 11960 12026 12006 11929 11898 11830 11898 11888 11983 12120 12131 12117 12048 12074 12012 11947 11993 11932
18151 18177 18257 18359 18412 18358 18275 18234 18245 18290 18342 18502 18624 18740 18785 18802 18802 18776 18756 18737 18790 18798 18913 18957 18889 18961 18953 19006 18984 19127 19220 19288 19392 19269 19083 18890 18745 18710 18608 18368 18170 18084 17970 17753 17598 17436 17468 17289 17193 17157 17193 17313 17363 17299 17160 17109 17127 17097 16929 16951 16906 16869 16679 16648 16673 16589 16691 16765 16788 16712 16727 16639 16605 16553 16463 16388 16276 16409 16490 16404 16379 16448 16414 16468 16512 16435 16298 16296 16377 16347 16477 16546 16714 16834 16832 16873 16990 16980 17003 17045 17035 17085 17072 17121 17171 17086 16965 17012 16891 16962 16960 16995 16940 16846 16769 16734 16677 16572 16398 16357 16194 15934 15773 15679 15471 15269 15164 14944 14840 14806 14732 14563 14519 14425 14251 14297 14239 13940 13677 13486 13269 13140 13014 12796 12550 12552 12484 12433 12446 12341 12242 12280 12334 12160 11978 11786 11649 11680 11702 11642 11621 11519 11401 11489 11403 11321 11361 11413 11621 11436 11376 11316 11165 11130 11009 10955 10867 10904 10891 10851 10895 10941 11086 11073 11151 11159 11179 11258 11215 11221 11172 11253 11220 11298 11237 11339 11394 11377 11407 11420 11371 11410 11374 11491 11512 11612 11677 11853 11976 11874 11885 11882 11816 11869 11902 11904 11810 11756 11810 11764 11721 11623 11605 11437 11375 11396 11408 11569 11659 11597 11633 11686 11856 11892 11834 11982 12081 11961 11971 12036 12077 12089 11992 11909 11869 11957 11912 11966 12043 12085 12084 12054 12060 11910 11849 11837 11714
18170 18237 18227 18286 18399 18318 18280 18263 18299 18427 18437 18545 18745 18747 18812 18831 18842 18836 18806 18935 18945 18959 19066 19008 19079 19130 19076 19135 19091 19268 19407 19443 19551 19426 19281 19063 18962 18841 18716 18521 18411 18193 17972 17840 17639 17478 17432 17335 17207 17176 17215 17262 17393 17416 17330 17243 17183 17137 16995 16985 17031 17039 16939 16911 16791 16771 16845 16933 16969 16865 16829 16837 16841 16672 16600 16511 16453 16543 16587 16534 16484 16500 16519 16528 16661 16533 16501 16456 16431 16543 16554 16630 16741 16788 16854 16943 17052 17051 17032 17092 17052 17150 17153 17137 17152 17026 16970 16917 16794 16897 16892 16853 16853 16780 16800 16737 16619 16481 16315 16263 16242 16048 15762 15551 15302 15128 14960 14865 14721 14686 14529 14479 14342 14187 14108 14108 14078 13921 13640 13507 13274 13125 12931 12702 12478 12480 12366 12355 12220 12178 12164 12158 12220 12107 11996 11820 11718 11654 11537 11503 11576 11493 11480 11478 11477 11404 11397 11415 11517 11416 11351 11221 11123 10994 10985 10876 10845 10902 10922 10926 10983 10951 11007 11061 11141 11099 11157 11149 11215 11115 11109 11150 11148 11251 11228 11223 11341 11387 11380 11333 11233 11265 11303 11428 11580 11605 11720 11762 11919 11951 11894 11934 11921 11977 11922 11760 11700 11794 11763 11718 11733 11612 11600 11437 11263 11263 11291 11336 11500 11531 11610 11732 11907 11862 11861 11929 12040 12074 11996 12008 12051 12096 12019 11944 11933 11986 11941 11956 12025 11997 12074 12099 12046 11972 11826 11646 11587
18223 18228 18259 18369 18514 18366 18359 18253 18321 18412 18499 18632 18754 18739 18811 18794 18784 18794 18884 18868 18904 19030 19104 18982 19040 19069 19011 19073 19113 19195 19426 19472 19520 19343 19251 19131 19014 18934 18794 18656 18497 18350 18179 18070 17897 17761 17582 17486 17340 17337 17292 17423 17460 17464 17393 17397 17335 17234 17093 17026 16992 16955 16964 16917 16847 16882 16893 17021 17074 16971 16972 16939 16981 16870 16703 16611 16523 16619 16611 16549 16542 16552 16579 16670 16756 16663 16578 16569 16591 16632 16553 16741 16804 16807 16967 17002 17140 17083 17080 17140 17151 17166 17174 17143 17219 17115 17017 16910 16840 16892 16887 16881 16858 16779 16813 16785 16749 16640 16473 16386 16383 16119 15877 15640 15464 15246 14945 14916 14788 14776 14610 14550 14377 14368 14295 14302 14189 13934 13641 13447 13281 13105 12951 12684 12577 12534 12473 12343 12301 12362 12340 12274 12292 12198 12169 12032 11821 11745 11634 11604 11593 11607 11561 11539 11642 11586 11572 11520 11457 11422 11267 11199 11159 11106 11004 10905 10910 10898 10965 10971 10914 10985 10981 11063 11086 11072 11040 11030 11089 11164 11141 11080 11131 11175 11212 11273 11377 11459 11479 11387 11304 11298 11335 11393 11523 11524 11662 11776 11965 11977 11899 11839 11882 11860 11834 11658 11585 11648 11592 11517 11542 11449 11365 11350 11200 11194 11266 11304 11478 11507 11552 11733 11776 11759 11701 11774 11963 11897 11871 11872 11996 11906 11806 11767 11701 11733 11618 11717 11719 11758 11804 11763 11778 11671 11635 11525 11318
18193 18227 18283 18415 18526 18483 18344 18282 18347 18400 18452 18665 18849 18797 18834 18742 18764 18773 18846 18856 18866 18919 19021 18921 18944 18982 18960 19028 19079 19175 19344 19366 19479 19406 19334 19207 19183 19007 18884 18719 18617 18517 18367 18210 18050 17876 17725 17579 17459 17406 17432 17434 17449 17468 17415 17404 17422 17340 17267 17113 17082 17005 16889 16935 16921 16973 17068 17070 17138 17123 17035 17066 17055 17032 16929 16770 16683 16673 16565 16563 16523 16521 16558 16738 16816 16719 16721 16802 16758 16694 16671 16774 16797 16859 16966 17089 17197 17131 17099 17089 17170 17128 17205 17172 17248 17160 16986 16928 16850 16866 16855 16827 16806 16829 16784 16814 16770 16626 16548 16562 16479 16162 15903 15762 15512 15241 14997 14860 14851 14828 14690 14526 14426 14404 14394 14373 14333 14047 13742 13467 13204 13013 12907 12711 12562 12542 12467 12465 12402 12465 12440 12475 12465 12388 12279 12066 11956 11780 11652 11654 11613 11730 11725 11718 11691 11717 11703 11546 11508 11445 11308 11221 11130 11111 11079 10978 10935 10908 10928 10900 10808 10867 11014 11003 10912 10863 10936 10978 10967 11087 11081 11105 11024 11107 11216 11212 11316 11445 11501 11461 11415 11402 11470 11469 11547 11542 11657 11840 11909 11894 11965 11854 11826 11823 11716 11587 11414 11438 11462 11427 11380 11298 11218 11213 11139 11216 11216 11360 11453 11535 11507 11642 11727 11659 11633 11729 11791 11763 11754 11855 11922 11785 11708 11578 11541 11508 11417 11490 11471 11411 11478 11545 11550 11504 11394 11306 11128
18163 18204 18301 18443 18527 18389 18390 18231 18206 18383 18500 18703 18840 18774 18767 18715 18743 18693 18732 18776 18753 18884 18942 19008 18999 19049 19028 19087 19197 19246 19374 19497 19525 19476 19394 19363 19296 19164 18961 18801 18695 18585 18507 18311 18232 18059 17973 17825 17635 17638 17570 17594 17498 17462 17512 17547 17547 17393 17263 17231 17146 17001 16939 17043 17058 17057 17088 17079 17184 17215 17147 17197 17266 17079 16962 16791 16729 16753 16596 16604 16655 16547 16546 16673 16798 16853 16881 16870 17026 16847 16885 16854 16926 17005 17154 17244 17267 17260 17286 17299 17339 17254 17227 17272 17230 17115 17023 16976 16891 16929 16974 16974 16903 16915 16810 16760 16773 16639 16492 16510 16510 16185 15947 15835 15673 15400 15058 15003 14858 14685 14593 14498 14408 14471 14408 14360 14302 14031 13809 13479 13265 13083 12930 12758 12690 12563 12520 12569 12533 12533 12529 12452 12434 12427 12350 12178 12024 11806 11731 11713 11738 11776 11787 11783 11789 11765 11767 11606 11588 11468 11412 11289 11146 11120 11129 11047 10949 10879 10755 10819 10810 10846 10950 11014 10935 10870 10827 10876 10907 11059 11023 11028 11046 11079 11123 11285 11372 11449 11431 11413 11455 11458 11539 11565 11552 11564 11658 11743 11729 11787 11832 11869 11896 11874 11772 11611 11369 11375 11308 11324 11226 11158 11125 11114 11107 11120 11221 11285 11425 11524 11540 11604 11630 11656 11575 11657 11660 11741 11727 11731 11833 11681 11528 11393 11293 11214 11236 11172 11177 11282 11298 11420 11448 11272 11248 11135 10972
18044 18118 18275 18392 18416 18404 18372 18280 18170 18348 18496 18600 18733 18833 18826 18777 18683 18657 18674 18686 18702 18851 18913 18946 18955 19010 19010 19178 19221 19373 19438 19481 19497 19479 19522 19507 19370 19237 19007 18922 18822 18718 18642 18523 18329 18219 18114 17929 17811 17856 17783 17755 17611 17538 17536 17486 17556 17372 17220 17167 17092 17140 17098 17194 17209 17209 17177 17160 17200 17208 17273 17340 17359 17182 16906 16755 16706 16763 16707 16771 16726 16617 16634 16701 16777 16841 16933 17002 17189 17038 16994 16914 16959 17152 17258 17386 17393 17407 17359 17359 17389 17297 17320 17278 17133 17012 16948 16929 16948 17075 17085 17032 17007 16963 16828 16766 16703 16619 16556 16505 16537 16369 16079 15846 15715 15481 15155 14989 14801 14655 14556 14559 14491 14524 14441 14441 14350 14114 13787 13617 13383 13259 13044 12874 12704 12741 12682 12684 12573 12545 12636 12539 12458 12404 12307 12129 12038 11895 11873 11891 11882 11823 11862 11826 11815 11798 11715 11685 11666 11522 11442 11296 11235 11174 11064 11019 10906 10740 10694 10715 10710 10774 10918 10921 10893 10900 10827 10908 10926 10983 10943 11069 11112 11170 11132 11181 11346 11381 11386 11381 11432 11489 11651 11693 11620 11593 11602 11654 11674 11756 11749 11796 11908 11861 11740 11496 11341 11225 11173 11103 11043 11091 11019 11056 11144 11139 11145 11262 11284 11425 11453 11477 11436 11522 11546 11618 11631 11719 11734 11735 11624 11492 11258 11131 11037 11034 10960 11034 10983 11132 11240 11304 11296 11100 10981 10900 10868
18171 18152 18213 18337 18287 18338 18282 18212 18235 18360 18416 18523 18674 18743 18770 18728 18636 18738 18730 18678 18699 18838 18895 18894 18876 18895 18894 19046 19238 19280 19289 19415 19508 19533 19592 19416 19371 19218 19052 18998 18913 18742 18646 18498 18345 18268 18088 17919 17811 17741 17761 17722 17570 17482 17425 17418 17532 17371 17331 17206 17183 17231 17208 17175 17286 17283 17295 17343 17371 17347 17354 17411 17357 17232 17051 16905 16855 16808 16847 16917 16943 16853 16910 16988 16970 17098 17201 17249 17406 17312 17209 17169 17068 17267 17272 17373 17345 17429 17373 17361 17423 17367 17373 17268 17263 17107 17038 17105 17072 17065 17143 17183 17131 17047 16945 16873 16762 16640 16555 16499 16498 16320 16116 15818 15648 15440 15114 14864 14658 14573 14526 14496 14447 14450 14442 14373 14253 14066 13908 13636 13423 13294 13162 12927 12798 12771 12745 12671 12626 12631 12749 12643 12504 12403 12267 12192 12073 11994 11960 12050 11979 11912 11874 11927 11896 11823 11655 11614 11630 11497 11455 11349 11271 11302 11242 11056 10951 10925 10819 10805 10725 10877 10957 10948 10883 10900 10839 10948 10947 10965 10979 10998 10913 11031 10963 11154 11225 11299 11361 11462 11520 11537 11562 11635 11642 11676 11592 11689 11745 11753 11744 11886 11979 11905 11756 11499 11354 11213 11178 11212 11094 11079 11042 11080 10996 11048 11134 11168 11175 11322 11385 11400 11445 11523 11479 11516 11462 11464 11499 11541 11433 11265 11136 11048 10978 10858 10821 10886 10853 10882 10917 10998 11062 10950 10821 10796 10700
18228 18205 18178 18228 18208 18190 18299 18254 18277 18389 18435 18637 18727 18755 18716 18739 18643 18700 18741 18737 18811 18890 18849 18771 18800 18823 18854 18953 19166 19159 19263 19360 19527 19565 19548 19414 19385 19290 19091 19036 19009 18811 18710 18567 18421 18256 18169 18001 17908 17793 17731 17639 17557 17532 17423 17469 17499 17450 17351 17275 17277 17308 17247 17264 17357 17427 17441 17525 17506 17544 17460 17464 17344 17234 17158 17009 16879 16982 17038 17148 17149 17152 17160 17170 17160 17290 17433 17406 17507 17479 17511 17403 17306 17381 17405 17381 17381 17455 17418 17386 17390 17424 17403 17325 17273 17237 17077 17153 17213 17216 17274 17217 17178 17066 17042 16970 16820 16662 16477 16467 16421 16263 16070 15861 15650 15299 15024 14797 14639 14518 14456 14378 14396 14491 14471 14360 14228 14101 13916 13670 13360 13325 13167 12957 12875 12844 12876 12782 12616 12714 12757 12662 12588 12463 12256 12154 12092 12023 12067 12129 12088 12004 11941 11903 11956 11853 11672 11627 11690 11545 11507 11458 11329 11298 11335 11155 11075 10954 10831 10883 10830 10902 11072 10959 10946 10982 10970 10937 11030 10957 10957 10823 10810 10918 10913 10997 11058 11147 11230 11347 11579 11574 11586 11581 11692 11637 11601 11637 11791 11823 11831 11897 11959 11788 11658 11495 11367 11328 11302 11257 11108 11054 11045 11000 10970 11060 11126 11039 11058 11120 11209 11351 11377 11409 11349 11283 11185 11236 11308 11316 11294 11133 11016 11004 10872 10765 10674 10681 10659 10712 10714 10766 10735 10744 10779 10695 10607
18288 18239 18218 18133 18164 18236 18321 18268 18371 18470 18524 18529 18608 18640 18708 18724 18670 18664 18590 18711 18834 18861 18808 18701 18779 18807 18822 18926 19021 19131 19223 19387 19513 19548 19496 19420 19293 19175 19114 19080 19012 18853 18741 18557 18439 18216 18151 17988 17853 17747 17774 17653 17596 17560 17454 17486 17548 17526 17442 17406 17370 17482 17486 17435 17465 17460 17447 17518 17555 17587 17479 17487 17364 17336 17253 17136 17018 17154 17148 17254 17304 17351 17342 17298 17302 17366 17561 17611 17746 17736 17612 17535 17388 17389 17369 17389 17465 17436 17352 17311 17307 17394 17416 17346 17239 17272 17192 17273 17262 17289 17368 17308 17349 17152 17080 16947 16804 16702 16512 16404 16373 16227 15930 15841 15598 15327 14978 14733 14563 14537 14545 14509 14396 14511 14509 14342 14291 14065 13923 13686 13321 13299 13199 13050 12889 12898 12837 12793 12713 12830 12776 12691 12658 12462 12364 12242 12276 12144 12097 12136 12099 12149 12092 12081 12059 11837 11684 11704 11623 11610 11590 11450 11434 11443 11442 11287 11196 11148 10951 11036 10907 11051 11110 11099 10999 11009 11061 11012 11026 10982 10858 10808 10750 10788 10956 10929 10999 11107 11184 11283 11552 11494 11498 11546 11570 11659 11721 11736 11792 11864 11832 11913 11965 11749 11689 11546 11425 11329 11291 11155 11067 10945 10953 10821 10814 10893 11035 10973 10982 11009 11077 11155 11236 11235 11268 11166 11018 11041 11154 11106 11034 10927 10918 10782 10678 10681 10531 10488 10497 10435 10432 10441 10573 10554 10593 10587 10493
18286 18252 18194 18122 18116 18261 18307 18359 18402 18449 18524 18450 18496 18588 18601 18578 18577 18533 18559 18687 18794 18725 18647 18684 18732 18792 18735 18869 18881 19114 19248 19392 19437 19433 19445 19382 19280 19184 19078 19161 19125 18922 18696 18474 18344 18277 18210 18040 17912 17817 17755 17693 17586 17552 17582 17605 17580 17561 17555 17484 17519 17608 17648 17622 17550 17461 17500 17532 17638 17586 17520 17402 17368 17375 17281 17230 17278 17373 17353 17326 17362 17378 17411 17515 17531 17566 17655 17814 17936 17876 17729 17567 17456 17413 17435 17391 17428 17336 17262 17305 17271 17273 17390 17294 17265 17191 17205 17270 17397 17435 17472 17464 17414 17224 17025 16972 16812 16728 16534 16512 16387 16145 15903 15739 15530 15275 14969 14770 14570 14536 14539 14486 14507 14539 14460 14388 14228 14090 13856 13660 13342 13261 13176 13055 12828 12885 12830 12840 12826 12889 12829 12730 12696 12533 12459 12421 12341 12307 12251 12240 12190 12160 12136 12085 12132 11937 11736 11662 11565 11603 11618 11560 11603 11570 11453 11400 11444 11256 11152 11158 11083 11146 11142 11168 11106 11123 11113 10984 10921 10911 10872 10852 10742 10757 10878 11012 11023 11071 11154 11284 11523 11404 11410 11439 11534 11633 11717 11716 11844 11779 11749 11825 11874 11753 11740 11529 11403 11329 11274 11082 10921 10832 10838 10741 10714 10749 10872 10816 10852 10845 10878 11034 11112 11086 11061 10953 10870 10936 10891 10864 10817 10724 10699 10567 10501 10554 10514 10469 10376 10345 10212 10199 10295 10354 10457 10438 10507
18262 18196 18253 18130 18122 18183 18265 18341 18407 18408 18453 18494 18638 18671 18676 18682 18615 18704 18712 18711 18708 18762 18677 18745 18874 18894 18907 18917 19025 19167 19299 19400 19534 19544 19548 19488 19422 19381 19289 19281 19212 19005 18822 18676 18567 18512 18317 18186 17957 17904 17897 17835 17834 17773 17814 17747 17718 17689 17794 17766 17711 17840 17861 17810 17720 17757 17787 17724 17745 17791 17704 17630 17597 17587 17561 17605 17578 17582 17585 17595 17514 17586 17603 17674 17793 17802 17797 17981 18073 17962 17769 17726 17558 17505 17564 17453 17426 17410 17350 17308 17295 17266 17338 17387 17345 17302 17313 17270 17399 17461 17397 17411 17527 17222 17023 16978 16768 16688 16571 16487 16349 16149 15836 15671 15487 15183 14897 14759 14605 14570 14582 14493 14346 14460 14419 14310 14226 14095 13952 13681 13437 13325 13228 13057 12973 12928 12741 12802 12756 12668 12631 12529 12495 12480 12342 12255 12200 12154 12114 12020 12018 12043 12105 12107 12038 11877 11659 11624 11549 11555 11548 11635 11650 11570 11466 11380 11372 11193 11105 11095 11063 11121 11079 11087 11140 11156 11159 11058 11086 11051 10919 10883 10798 10784 10806 10831 10915 10978 11107 11300 11505 11351 11329 11507 11650 11695 11754 11770 11838 11882 11823 11820 11770 11719 11681 11478 11296 11138 11091 10997 10825 10806 10752 10719 10663 10672 10756 10751 10732 10787 10796 10921 10924 10940 10864 10783 10707 10720 10815 10707 10725 10709 10578 10513 10522 10475 10362 10353 10224 10267 10157 10101 10173 10270 10350 10432 10396
18360 18268 18284 18194 18013 18061 18197 18236 18321 18394 18458 18583 18720 18752 18858 18756 18762 18732 18778 18694 18729 18715 18761 18866 18940 19054 19121 19118 19212 19362 19479 19554 19518 19627 19625 19568 19532 19518 19421 19387 19286 19187 19040 18895 18851 18637 18495 18256 18127 18145 18097 18167 18166 18090 17983 17990 17899 17892 17923 17964 17960 18023 18009 17961 17950 18022 18067 18048 17927 17927 17860 17788 17751 17803 17819 17877 17815 17729 17705 17732 17659 17734 17831 17969 18042 17974 17927 18070 18159 18041 17884 17856 17747 17680 17731 17619 17484 17484 17475 17391 17310 17333 17289 17323 17403 17341 17345 17339 17395 17424 17410 17511 17598 17291 17081 16931 16800 16715 16599 16425 16302 16090 15810 15618 15535 15282 14925 14796 14656 14668 14592 14409 14308 14330 14397 14329 14285 14091 13957 13825 13600 13486 13336 13105 12993 12935 12751 12745 12640 12642 12550 12457 12365 12310 12182 12164 12029 11927 11954 11900 11921 11998 12071 11981 12017 11836 11697 11628 11580 11583 11605 11619 11600 11555 11486 11491 11377 11287 11131 11154 11074 11050 11071 11014 11071 11101 11154 11172 11163 11056 11004 10919 10731 10729 10720 10687 10780 10989 11170 11342 11407 11334 11309 11426 11651 11676 11734 11821 11956 11908 11866 11816 11741 11727 11623 11445 11235 11081 10990 10959 10814 10827 10774 10621 10597 10686 10763 10741 10711 10703 10719 10756 10853 10836 10785 10688 10597 10607 10660 10563 10571 10576 10581 10581 10528 10453 10305 10182 10158 10128 10107 10119 10079 10171 10267 10299 10246
18424 18349 18374 18216 18046 18129 18168 18305 18343 18493 18636 18776 18844 18869 18857 18825 18729 18713 18801 18763 18811 18784 18799 18933 19078 19186 19239 19294 19264 19368 19515 19579 19583 19564 19657 19684 19612 19628 19614 19497 19445 19346 19241 19126 19050 18926 18739 18492 18319 18405 18435 18370 18440 18349 18238 18241 18120 18153 18220 18230 18238 18226 18274 18360 18289 18191 18224 18118 18071 18046 18033 17947 17973 17999 18018 17997 17970 17945 17864 17828 17835 18025 18114 18103 18262 18167 18156 18284 18318 18237 18137 18056 17884 17793 17841 17695 17508 17538 17409 17335 17360 17386 17370 17353 17370 17374 17361 17307 17324 17400 17491 17533 17582 17348 17235 17019 16914 16824 16604 16518 16295 16021 15854 15623 15483 15209 14886 14736 14612 14583 14527 14402 14280 14307 14242 14177 14129 14059 13938 13821 13610 13376 13208 13026 12942 12883 12834 12674 12594 12578 12473 12355 12319 12304 12263 12187 12019 11912 11920 11909 11834 11878 11888 11837 11850 11735 11714 11586 11514 11464 11389 11464 11541 11463 11450 11489 11431 11313 11223 11201 11157 11072 11155 11083 11171 11228 11203 11208 11246 11169 10997 10897 10799 10728 10741 10707 10746 10921 11036 11154 11209 11198 11235 11419 11653 11649 11730 11829 11871 11904 11783 11766 11679 11596 11484 11398 11210 11130 11064 10920 10861 10838 10690 10603 10543 10612 10722 10712 10687 10617 10670 10731 10690 10659 10590 10571 10408 10526 10566 10590 10578 10597 10510 10476 10408 10331 10203 10148 10052 10018 9973 10061 10114 10196 10248 10244 10270
18373 18310 18363 18282 18150 18230 18239 18366 18458 18534 18720 18864 18892 18854 18890 18893 18806 18765 18729 18798 18786 18818 18922 19158 19278 19274 19314 19408 19438 19536 19508 19526 19636 19648 19773 19818 19750 19754 19785 19647 19598 19549 19423 19296 19271 19117 18918 18748 18577 18593 18649 18664 18638 18524 18487 18401 18262 18287 18436 18448 18465 18492 18626 18669 18604 18487 18461 18337 18165 18157 18228 18241 18281 18124 18092 18174 18144 18122 18075 18051 18030 18231 18307 18283 18388 18302 18286 18376 18432 18434 18356 18272 18063 17940 17872 17690 17466 17516 17463 17407 17480 17475 17556 17476 17398 17446 17498 17376 17362 17454 17517 17500 17541 17464 17368 17198 16946 16873 16713 16534 16348 16001 15781 15627 15378 15203 14955 14864 14661 14577 14493 14403 14218 14156 14174 14096 14096 13976 13814 13788 13687 13388 13178 13017 12925 12893 12822 12615 12521 12506 12439 12365 12219 12232 12222 12076 11974 11922 11766 11826 11799 11825 11834 11772 11778 11701 11724 11620 11457 11428 11297 11327 11370 11368 11343 11411 11388 11375 11244 11274 11241 11159 11122 11133 11188 11219 11129 11145 11213 11138 10977 10955 10836 10833 10874 10759 10771 10790 10881 10957 11053 11107 11223 11370 11603 11693 11666 11726 11839 11848 11741 11711 11662 11454 11358 11372 11289 11281 11149 10987 10869 10795 10721 10565 10418 10553 10573 10629 10662 10648 10535 10642 10625 10609 10507 10443 10268 10339 10484 10433 10506 10510 10396 10336 10355 10259 10195 10117 10012 10030 9956 10037 10040 10148 10224 10234 10168
18459 18442 18514 18344 18158 18173 18235 18401 18569 18620 18739 18847 18781 18771 18877 18958 18893 18849 18878 18839 18892 18956 19049 19260 19348 19301 19313 19371 19438 19605 19644 19749 19782 19841 19973 19880 19848 19810 19744 19654 19725 19655 19544 19560 19498 19299 19060 18912 18680 18781 18808 18791 18765 18679 18642 18621 18467 18555 18529 18598 18556 18663 18722 18847 18849 18665 18628 18514 18391 18370 18355 18335 18444 18393 18295 18371 18298 18294 18276 18216 18214 18390 18430 18404 18509 18396 18371 18405 18483 18416 18378 18315 18282 18138 18030 17822 17669 17555 17530 17455 17587 17523 17501 17538 17502 17483 17499 17466 17481 17438 17511 17502 17443 17370 17342 17152 16914 16833 16618 16462 16319 15983 15820 15672 15464 15314 15020 14875 14784 14708 14473 14330 14222 14243 14218 14212 14106 14045 13945 13857 13720 13413 13264 13115 12978 12917 12860 12691 12430 12414 12466 12274 12078 12161 12199 12036 11895 11907 11814 11823 11830 11768 11785 11738 11632 11627 11631 11526 11453 11434 11271 11273 11290 11251 11310 11260 11276 11190 11114 11202 11198 11123 11138 11167 11115 11073 11033 11070 11201 11044 11018 10930 10909 10817 10892 10860 10823 10891 10917 10913 11057 11115 11158 11315 11475 11533 11551 11692 11737 11791 11665 11650 11626 11559 11381 11320 11264 11187 11182 11000 10830 10783 10731 10537 10338 10368 10393 10533 10586 10497 10485 10511 10485 10479 10305 10226 10159 10181 10314 10296 10266 10328 10305 10270 10293 10212 10064 10001 9984 10041 9999 10127 10108 10030 10031 10082 10079
18541 18557 18550 18426 18264 18309 18334 18553 18667 18723 18822 18790 18796 18771 18795 18917 18929 18939 18945 19033 19078 19178 19197 19256 19408 19403 19351 19411 19545 19667 19829 19838 19909 19993 20109 19978 19969 19872 19805 19759 19789 19784 19776 19714 19718 19401 19204 19019 18876 18908 18958 18911 18906 18958 18891 18797 18746 18740 18666 18736 18725 18821 18909 18979 19009 18847 18801 18724 18613 18631 18525 18494 18548 18577 18623 18497 18475 18500 18486 18459 18464 18571 18619 18645 18598 18566 18524 18468 18516 18513 18507 18439 18407 18267 18134 17880 17747 17707 17595 17542 17606 17593 17491 17513 17550 17591 17534 17531 17519 17438 17432 17414 17427 17425 17301 17082 16955 16801 16626 16456 16196 16008 15920 15826 15630 15410 15129 15038 14936 14771 14549 14442 14293 14210 14156 14183 14100 14054 13998 13857 13812 13536 13363 13247 13016 12941 12878 12648 12443 12468 12468 12235 12020 12099 12085 11994 11843 11947 11925 11940 11842 11746 11735 11692 11593 11596 11544 11597 11543 11402 11258 11274 11258 11241 11157 11204 11214 11192 11112 11063 11038 11064 11179 11124 11140 11062 11041 11139 11159 11065 11041 10953 10932 10875 10927 10917 10921 10936 10839 10939 11028 11036 11159 11197 11253 11352 11361 11516 11733 11667 11685 11751 11719 11603 11413 11309 11251 11199 11256 11123 10890 10813 10709 10465 10350 10369 10273 10374 10415 10359 10370 10416 10377 10296 10200 10191 10078 10111 10116 10067 10081 10145 10247 10206 10169 10047 10034 10044 10044 10012 10056 10146 10160 10078 9927 9892 9876
18531 18577 18525 18524 18426 18430 18377 18585 18646 18729 18854 18899 18883 18835 18906 18925 19084 19003 18978 19069 19180 19243 19288 19302 19399 19494 19464 19495 19647 19707 19827 20016 20144 20153 20191 20232 20237 20046 19998 19893 19933 19887 19927 19843 19805 19597 19466 19309 19085 19130 19084 19020 19048 19046 19088 19075 19034 18895 18870 18866 18862 18904 19031 19104 19154 19057 19033 18945 18813 18778 18730 18720 18654 18697 18823 18734 18730 18822 18819 18751 18660 18626 18689 18728 18692 18678 18660 18636 18697 18637 18694 18524 18412 18328 18123 17987 17788 17825 17782 17679 17624 17633 17593 17646 17642 17648 17603 17629 17589 17644 17577 17486 17410 17439 17324 17147 16949 16703 16513 16313 16052 15893 15751 15781 15682 15449 15189 15098 15027 14899 14798 14550 14374 14264 14282 14135 14079 13945 13903 13847 13770 13604 13373 13296 13185 13039 12904 12775 12508 12440 12414 12191 12040 12100 12031 11880 11799 11807 11884 11814 11830 11774 11686 11651 11592 11505 11455 11515 11470 11370 11342 11263 11146 11170 11138 11219 11214 11125 11012 10979 11029 11097 11166 11041 11007 11073 11082 11128 11091 10990 11023 11005 10970 10997 10924 10916 11009 10936 10938 10908 10951 10972 11015 11039 11185 11187 11267 11478 11677 11655 11621 11639 11642 11542 11436 11350 11300 11323 11305 11051 10886 10796 10668 10420 10282 10300 10166 10225 10224 10125 10182 10213 10289 10127 10066 10115 10048 10045 10042 10036 9996 9974 10102 10095 10089 9977 10000 10002 10115 10144 10160 10126 10165 10008 9842 9704 9674
18612 18569 18610 18610 18484 18462 18532 18653 18724 18763 18895 18874 18951 19002 18928 19045 19127 19113 19122 19201 19187 19365 19440 19500 19452 19555 19633 19631 19636 19739 19908 20100 20290 20317 20328 20384 20388 20289 20149 20117 20068 20000 20043 19975 19960 19842 19666 19471 19343 19320 19175 19180 19242 19284 19328 19316 19227 19171 19020 19065 19069 19075 19161 19184 19179 19175 19163 19033 18964 19019 18965 18873 18844 18907 18932 18985 18954 19006 19071 19039 18954 18798 18740 18728 18667 18705 18682 18762 18844 18881 18801 18612 18538 18360 18170 17970 17815 17876 17859 17754 17728 17701 17725 17654 17682 17652 17625 17693 17757 17781 17714 17635 17443 17375 17243 17126 16905 16615 16328 16078 15893 15843 15688 15666 15729 15557 15341 15244 15181 15028 14970 14736 14532 14399 14337 14162 14002 13859 13769 13732 13791 13605 13479 13386 13273 13041 12871 12789 12616 12537 12473 12317 12076 11997 12014 11834 11719 11786 11811 11806 11867 11836 11750 11657 11665 11584 11411 11460 11398 11426 11353 11181 11093 11030 10995 11117 11149 11006 10957 11001 10975 10971 11036 10958 10999 10955 11038 11008 11076 10976 10943 10969 11059 11083 10986 10964 11048 11053 10976 11021 10969 10909 10967 11012 11065 11155 11199 11356 11558 11476 11497 11519 11538 11499 11501 11447 11311 11249 11247 11138 10968 10733 10600 10345 10207 10181 10059 10009 9981 9973 10063 10025 10108 10011 9951 9996 9916 9973 9971 9941 9821 9901 9864 9899 9953 10023 10033 10067 10152 10120 10153 10123 10074 9924 9771 9634 9541
18787 18691 18646 18675 18653 18653 18830 18841 18978 19064 19085 18948 18972 19007 19010 19099 19196 19284 19362 19262 19247 19351 19463 19565 19777 19796 19790 19843 19846 20021 20191 20368 20540 20570 20591 20575 20547 20388 20300 20245 20088 20083 20065 20051 20014 19947 19817 19589 19335 19350 19332 19371 19379 19406 19477 19455 19436 19292 19212 19124 19158 19129 19176 19182 19132 19127 19235 19131 19129 19064 19009 18993 19006 19050 19062 19040 19071 19008 19121 19106 19108 19039 18965 18807 18816 18857 18835 18803 18883 18824 18795 18709 18651 18492 18279 18161 17987 17937 17860 17852 17878 17817 17683 17703 17709 17543 17531 17582 17687 17687 17706 17511 17323 17254 17162 16929 16791 16485 16264 16093 15899 15863 15745 15782 15762 15465 15293 15223 15175 15100 15019 14841 14654 14425 14352 14180 14023 13907 13785 13849 13900 13693 13573 13467 13404 13210 13112 13015 12811 12673 12584 12435 12232 12119 12154 12069 11966 12035 11960 11961 11899 11887 11871 11875 11766 11684 11632 11672 11659 11549 11579 11394 11177 11244 11207 11254 11257 11081 11024 11014 11013 11053 11090 11007 11101 11023 11034 11041 11023 10918 10881 10912 10898 10942 10912 10898 10992 10989 10875 10949 10884 10817 10852 10839 10917 10968 10992 11131 11235 11214 11294 11300 11309 11346 11277 11257 11106 10997 11044 10852 10750 10583 10479 10244 10148 10049 9946 9839 9802 9873 9885 9967 10046 9870 9785 9862 9815 9840 9891 9827 9706 9771 9690 9783 9880 9863 9897 9961 10075 10091 10069 10036 9983 9786 9719 9641 9531
18859 18861 18793 18758 18700 18809 19003 19110 19221 19231 19202 19107 19079 19131 19079 19214 19300 19340 19506 19486 19402 19439 19585 19766 20023 20027 20022 20099 20110 20264 20441 20614 20741 20735 20750 20680 20613 20552 20430 20283 20110 20091 20132 20116 20163 19991 19847 19591 19414 19394 19490 19574 19624 19637 19667 19662 19531 19432 19329 19217 19160 19204 19148 19098 19152 19175 19237 19204 19168 19138 19128 19202 19180 19176 19235 19179 19097 19048 19080 19195 19257 19160 19066 18975 18915 18903 18934 18849 18882 18839 18853 18821 18703 18582 18411 18294 18143 18009 17918 17985 18029 17828 17702 17679 17624 17535 17562 17569 17694 17712 17675 17410 17252 17185 17020 16814 16637 16402 16118 16036 15846 15722 15712 15712 15717 15486 15349 15229 15132 15095 14994 14767 14656 14474 14360 14211 13960 13898 13912 13887 13978 13811 13633 13547 13457 13416 13296 13106 12959 12837 12741 12626 12439 12349 12383 12259 12178 12197 12094 12105 12050 12017 12031 11989 11925 11896 11822 11844 11827 11788 11745 11526 11388 11376 11314 11251 11286 11192 11151 11038 11014 11115 11178 11130 11177 11044 10916 10865 10846 10748 10713 10775 10725 10781 10803 10926 11023 10885 10744 10764 10744 10714 10690 10769 10818 10814 10832 10945 10994 11080 11173 11234 11182 11195 11111 10967 10803 10798 10759 10714 10556 10429 10382 10171 10074 9970 9916 9764 9684 9729 9687 9822 9928 9863 9709 9645 9606 9650 9740 9733 9651 9589 9605 9656 9707 9685 9769 9944 10094 10079 10102 9979 9918 9705 9573 9535 9446
18934 18826 18779 18762 18771 18865 19068 19223 19415 19346 19321 19246 19133 19216 19290 19265 19357 19433 19555 19587 19559 19592 19720 19975 20156 20212 20267 20240 20311 20447 20522 20721 20868 20920 20886 20832 20703 20571 20493 20369 20232 20201 20176 20150 20145 19969 19939 19666 19507 19618 19674 19749 19778 19822 19812 19770 19671 19554 19397 19273 19292 19266 19186 19099 19174 19242 19310 19290 19393 19290 19313 19366 19285 19268 19377 19232 19239 19181 19196 19286 19334 19272 19123 18968 18862 18824 18910 18943 18956 18827 18845 18724 18608 18563 18404 18326 18202 18054 18035 18088 18067 17961 17796 17717 17574 17571 17679 17675 17706 17644 17573 17396 17279 17148 16989 16812 16529 16352 16134 16038 15825 15733 15725 15674 15600 15549 15391 15362 15205 15112 15015 14750 14678 14552 14393 14229 13988 13972 13962 13905 13944 13861 13825 13639 13613 13486 13490 13290 13067 12935 12877 12677 12492 12542 12487 12423 12376 12379 12332 12238 12189 12184 12209 12213 12156 12103 12061 12065 11994 11968 11855 11652 11492 11539 11466 11265 11279 11209 11113 11087 11014 11142 11174 11166 11231 11155 10956 10939 10820 10725 10639 10759 10713 10718 10741 10800 10893 10744 10691 10701 10626 10622 10583 10591 10682 10654 10715 10761 10750 10842 10849 10888 10901 10835 10753 10687 10669 10621 10589 10524 10507 10331 10303 10117 9925 9942 9880 9725 9602 9616 9569 9669 9752 9716 9676 9610 9528 9542 9684 9618 9640 9623 9516 9594 9600 9720 9774 9803 9985 9987 9921 9827 9797 9644 9598 9564 9510
18900 18876 18857 18926 18956 19039 19139 19354 19492 19427 19398 19407 19297 19404 19401 19426 19466 19542 19704 19799 19803 19852 19970 20189 20383 20467 20431 20468 20604 20626 20722 20936 21089 21059 20990 20843 20810 20632 20559 20465 20356 20346 20222 20186 20120 20012 19973 19867 19651 19739 19808 19875 20044 19961 19978 19920 19873 19745 19524 19405 19298 19203 19175 19135 19204 19252 19353 19413 19579 19517 19544 19493 19472 19441 19444 19372 19367 19375 19334 19324 19371 19302 19154 19051 18915 18868 18927 18955 18916 18922 18860 18799 18639 18542 18405 18356 18249 18186 18065 18020 18086 17903 17785 17723 17543 17697 17726 17740 17701 17685 17565 17482 17302 17103 16894 16743 16507 16333 16136 16032 15902 15764 15648 15530 15469 15475 15498 15408 15299 15097 14963 14788 14738 14548 14369 14273 14064 14025 14060 14009 13933 13985 13940 13758 13699 13643 13605 13506 13303 13166 12922 12726 12617 12588 12532 12521 12514 12504 12561 12483 12423 12470 12415 12387 12316 12318 12245 12208 12181 12126 11963 11773 11652 11592 11501 11320 11189 11142 11122 11155 11137 11161 11160 11265 11249 11137 11055 10965 10781 10730 10594 10660 10639 10613 10586 10733 10773 10593 10525 10523 10404 10491 10455 10451 10528 10560 10536 10577 10574 10560 10641 10587 10646 10492 10452 10487 10487 10423 10324 10283 10346 10198 10136 9963 9857 9858 9752 9647 9610 9592 9557 9569 9695 9598 9573 9527 9405 9411 9525 9517 9562 9531 9465 9463 9554 9607 9733 9750 9787 9721 9738 9668 9612 9604 9556 9550 9537
19077 19059 19072 19059 19146 19132 19244 19414 19592 19533 19488 19431 19290 19382 19491 19513 19558 19568 19673 19705 19847 19919 20042 20340 20498 20579 20609 20702 20822 20790 20942 21012 21194 21044 21045 20869 20851 20811 20712 20587 20541 20492 20293 20339 20228 20145 20100 20004 19791 19909 19973 20026 20195 20019 19975 20012 19923 19793 19573 19473 19400 19340 19240 19301 19313 19398 19443 19502 19650 19712 19719 19707 19734 19674 19731 19655 19735 19668 19592 19627 19644 19482 19334 19151 18995 19060 19012 18985 19023 18904 18766 18721 18672 18487 18404 18286 18239 18250 18155 18141 18026 17982 17860 17704 17515 17621 17718 17654 17593 17527 17461 17345 17302 17091 16896 16650 16418 16295 16107 15947 15914 15792 15610 15556 15461 15384 15420 15294 15270 15115 14944 14840 14660 14532 14411 14305 14167 14144 14054 14080 14025 14008 14037 13861 13761 13682 13720 13589 13380 13161 13013 12884 12733 12755 12659 12630 12671 12658 12621 12625 12562 12600 12582 12557 12487 12415 12448 12320 12308 12235 12003 11845 11667 11639 11508 11443 11314 11228 11117 11125 11124 11161 11143 11172 11223 11167 11111 10991 10743 10713 10741 10697 10584 10625 10574 10690 10700 10515 10476 10409 10412 10457 10417 10402 10462 10393 10431 10434 10472 10498 10464 10546 10590 10442 10400 10255 10269 10224 10143 10116 10057 9959 9867 9768 9683 9691 9710 9600 9586 9569 9576 9651 9647 9610 9435 9403 9342 9305 9382 9434 9422 9378 9461 9423 9537 9594 9720 9743 9825 9775 9727 9679 9580 9620 9708 9726 9680
19146 19192 19283 19295 19393 19350 19422 19555 19602 19602 19599 19518 19407 19464 19578 19567 19546 19554 19684 19759 19940 20076 20238 20479 20618 20667 20744 20797 20974 20966 21043 21124 21275 21082 21010 20913 20922 20884 20766 20704 20721 20626 20456 20414 20411 20311 20324 20219 20059 20177 20231 20271 20245 20150 20037 20061 20087 19856 19686 19551 19424 19416 19344 19457 19454 19431 19524 19694 19801 19841 19807 19883 19881 19958 19929 20002 19977 19886 19730 19781 19840 19734 19567 19325 19156 19217 19183 19102 19058 18910 18772 18721 18664 18513 18383 18309 18205 18228 18231 18149 18022 17956 17825 17696 17498 17548 17586 17575 17538 17465 17285 17258 17233 17102 16972 16706 16384 16222 16152 15946 15816 15731 15533 15450 15472 15372 15343 15295 15314 15039 14882 14754 14636 14548 14567 14511 14356 14218 14124 14151 14145 14054 14037 13968 13903 13817 13743 13570 13408 13230 13116 13036 12844 12866 12871 12808 12814 12779 12761 12620 12595 12635 12657 12659 12690 12641 12602 12520 12511 12384 12141 11892 11712 11609 11566 11568 11461 11255 11166 11153 11067 11157 11154 11199 11288 11134 11054 10954 10833 10843 10811 10752 10658 10597 10586 10541 10624 10470 10427 10418 10355 10285 10335 10425 10430 10356 10343 10286 10272 10327 10395 10382 10461 10417 10278 10048 9947 9996 9970 9899 9717 9679 9673 9609 9591 9552 9623 9701 9668 9647 9676 9699 9683 9533 9400 9273 9246 9297 9302 9256 9175 9339 9435 9459 9552 9671 9687 9815 9817 9721 9621 9594 9673 9718 9780 9770 9721
19418 19414 19401 19536 19639 19679 19693 19727 19697 19646 19547 19487 19424 19453 19551 19486 19507 19562 19752 19881 20109 20296 20350 20612 20756 20787 20865 21020 21085 21096 21156 21297 21356 21183 21005 20901 20832 20787 20779 20813 20771 20747 20625 20623 20561 20510 20458 20310 20202 20302 20325 20336 20349 20270 20080 20087 20093 19970 19744 19694 19538 19499 19477 19481 19540 19586 19708 19726 19835 19884 19870 20012 20001 20040 20104 20189 20204 20036 19947 19996 20091 19895 19671 19474 19312 19279 19262 19090 19007 18951 18759 18734 18578 18435 18406 18418 18331 18198 18199 18108 17923 17880 17710 17537 17398 17403 17432 17429 17440 17326 17292 17312 17350 17189 17021 16750 16401 16248 16117 15973 15867 15740 15537 15496 15331 15344 15255 15167 15150 15036 14880 14823 14645 14680 14623 14496 14354 14293 14238 14186 14268 14136 14110 13998 13899 13927 13876 13755 13610 13341 13178 13053 13025 13050 13110 13042 13018 12896 12835 12704 12686 12741 12778 12706 12777 12774 12632 12700 12662 12484 12243 11966 11840 11736 11742 11689 11578 11377 11248 11161 11082 11133 11256 11243 11153 11112 11094 11085 10972 10923 10897 10830 10624 10642 10534 10436 10492 10457 10401 10300 10268 10248 10374 10359 10265 10268 10302 10141 10174 10223 10289 10298 10261 10199 9966 9851 9748 9725 9681 9564 9492 9421 9342 9354 9373 9346 9472 9598 9618 9631 9565 9652 9649 9488 9491 9373 9217 9225 9231 9204 9119 9168 9303 9383 9553 9531 9608 9761 9781 9696 9640 9591 9684 9736 9905 9910 9834
19568 19616 19615 19665 19797 19837 19846 19910 19859 19701 19529 19424 19445 19433 19537 19410 19389 19614 19828 20056 20264 20415 20552 20710 20844 20966 21022 21119 21253 21272 21234 21365 21378 21225 21073 20997 20869 20810 20844 20806 20863 20844 20849 20681 20609 20565 20512 20471 20446 20437 20385 20395 20489 20375 20191 20161 20135 20075 19928 19857 19660 19684 19609 19699 19680 19670 19787 19858 19870 19899 20003 20145 20207 20228 20196 20208 20345 20251 20174 20184 20222 19945 19778 19522 19370 19319 19256 19185 18988 18894 18834 18737 18515 18486 18496 18480 18352 18273 18177 18089 17891 17698 17606 17556 17426 17429 17348 17339 17308 17231 17225 17243 17341 17222 17003 16711 16425 16353 16155 16034 15851 15711 15532 15481 15305 15245 15166 15090 15115 15000 14934 14795 14758 14653 14606 14577 14450 14354 14322 14344 14380 14252 14183 13996 13909 13918 13903 13808 13755 13514 13325 13185 13113 13177 13235 13143 13129 13025 13014 12865 12822 12835 12841 12851 12891 12799 12755 12744 12710 12415 12243 12117 11980 11902 11800 11746 11722 11506 11407 11229 11179 11179 11234 11234 11142 11141 11112 11123 11137 10994 10935 10855 10689 10626 10455 10385 10413 10426 10360 10305 10255 10307 10318 10273 10149 10130 10176 10040 10016 10090 10079 10111 10085 9930 9771 9737 9660 9551 9510 9440 9309 9153 9126 9179 9113 9168 9302 9379 9488 9511 9511 9538 9578 9538 9494 9297 9195 9136 9190 9111 8975 9050 9190 9305 9502 9486 9585 9605 9645 9687 9645 9677 9736 9843 9918 9923 9853
19634 19703 19703 19779 19886 19911 20013 19970 20024 19892 19750 19596 19508 19525 19581 19545 19555 19779 19977 20176 20407 20519 20645 20885 21020 21054 21126 21239 21342 21408 21466 21532 21547 21378 21168 21162 21018 20963 20998 21008 21008 21083 21085 20887 20766 20710 20796 20718 20658 20713 20615 20564 20617 20444 20336 20393 20349 20289 20144 19997 19772 19883 19834 19886 19855 19841 19984 19944 20063 20005 20078 20169 20213 20280 20308 20335 20381 20222 20163 20261 20237 19986 19773 19681 19556 19391 19363 19281 19162 19015 18969 18838 18788 18690 18575 18475 18352 18202 18148 18050 17934 17805 17639 17641 17465 17523 17501 17370 17412 17305 17329 17367 17316 17133 17001 16780 16511 16450 16303 16102 15927 15747 15615 15550 15415 15367 15254 15207 15139 15130 14991 14910 14857 14731 14692 14652 14632 14511 14512 14532 14432 14261 14246 14207 14076 14014 14023 13948 14033 13800 13468 13406 13286 13337 13348 13323 13295 13176 13080 13082 13065 12916 12842 12925 12926 12898 12777 12785 12655 12455 12348 12226 12090 12016 11895 11755 11724 11539 11350 11267 11192 11263 11269 11262 11141 11144 11139 11165 11224 11104 11005 10926 10798 10626 10486 10520 10509 10472 10360 10297 10226 10261 10249 10137 10044 9980 9975 9942 9865 9965 10057 9979 9958 9864 9719 9645 9549 9542 9485 9410 9309 9090 8973 9060 9106 9183 9205 9314 9335 9356 9469 9505 9592 9437 9333 9204 9080 9065 9061 9038 9025 9040 9138 9179 9358 9400 9465 9432 9516 9585 9579 9611 9694 9694 9854 9767 9750
19684 19711 19748 19873 20102 20075 20168 20160 20161 20134 19987 19795 19653 19694 19686 19681 19673 19831 20109 20348 20483 20689 20862 20979 21119 21125 21220 21362 21452 21556 21619 21650 21607 21443 21312 21216 21206 21160 21211 21159 21230 21213 21210 21174 21014 20951 20975 21001 20943 20907 20852 20829 20694 20619 20505 20511 20443 20426 20319 20128 19971 20009 19953 19998 20032 20102 20059 20049 20156 20210 20260 20268 20293 20402 20437 20389 20306 20208 20185 20296 20323 20052 19864 19797 19638 19534 19472 19450 19403 19285 19125 19086 19020 18842 18749 18518 18284 18259 18241 18125 18048 17953 17764 17662 17494 17493 17532 17431 17438 17497 17432 17412 17309 17204 16986 16767 16563 16406 16325 16213 16129 15865 15640 15584 15503 15339 15295 15242 15265 15153 15121 15039 14970 14980 14885 14930 14856 14794 14727 14684 14554 14370 14250 14293 14243 14161 14066 14137 14188 13969 13701 13523 13450 13435 13439 13412 13347 13260 13266 13232 13197 13067 12963 13003 12997 12979 12923 12781 12708 12542 12360 12305 12186 12066 11911 11773 11678 11519 11373 11341 11204 11228 11311 11234 11155 11227 11242 11294 11238 11183 11144 11040 10892 10786 10620 10672 10601 10503 10433 10241 10093 10054 10081 9939 9837 9864 9866 9853 9795 9914 9927 9857 9914 9863 9785 9707 9559 9544 9487 9357 9209 9072 8928 9008 8987 9002 9095 9114 9136 9262 9434 9494 9548 9323 9223 9092 9017 8989 8961 8925 9013 9046 9057 9165 9267 9331 9415 9343 9333 9356 9484 9490 9593 9641 9665 9691 9673
19672 19850 19964 19997 20086 20202 20230 20283 20263 20204 20033 19875 19734 19830 19944 19833 19889 20101 20304 20491 20617 20726 20934 21113 21306 21315 21392 21416 21471 21597 21642 21668 21735 21622 21486 21369 21245 21285 21208 21208 21300 21361 21331 21295 21317 21166 21148 21127 21010 20973 21009 20907 20842 20737 20731 20669 20697 20649 20546 20371 20135 20193 20200 20162 20226 20164 20201 20187 20316 20401 20405 20441 20381 20477 20520 20412 20362 20349 20235 20292 20282 20040 19896 19871 19805 19606 19571 19490 19461 19422 19319 19301 19145 18973 18870 18591 18334 18326 18322 18140 18043 17924 17837 17701 17536 17477 17537 17542 17563 17592 17518 17432 17454 17240 17149 16906 16719 16501 16349 16241 16152 15924 15653 15644 15532 15436 15301 15293 15304 15233 15196 15133 15018 15023 15003 14945 14923 14819 14785 14681 14540 14457 14369 14361 14280 14255 14282 14343 14381 14130 13953 13822 13606 13658 13647 13514 13465 13450 13400 13404 13323 13179 13044 13062 12971 12940 12812 12782 12722 12644 12468 12312 12205 12084 11979 11845 11728 11592 11498 11433 11262 11310 11308 11281 11222 11218 11195 11290 11221 11164 11132 10937 10842 10753 10701 10677 10627 10511 10394 10112 9973 9878 9856 9760 9710 9697 9736 9658 9626 9696 9671 9698 9737 9785 9743 9575 9483 9474 9394 9303 9083 9001 8944 8920 8851 8937 9078 9011 9015 9227 9313 9358 9532 9391 9206 8986 8899 8961 8981 8946 8942 8914 8931 8953 9039 9159 9184 9197 9211 9273 9417 9500 9662 9570 9634 9706 9659
19705 19823 20059 20076 20198 20218 20266 20316 20442 20353 20202 20061 19933 19958 20081 20072 20138 20366 20492 20589 20652 20870 21056 21313 21482 21582 21610 21483 21485 21638 21712 21784 21906 21810 21752 21634 21404 21334 21313 21349 21345 21427 21533 21536 21520 21360 21313 21203 21201 21078 21076 21076 21098 20973 20967 20925 20950 20822 20683 20581 20395 20462 20422 20298 20300 20283 20350 20374 20421 20447 20452 20499 20481 20488 20494 20534 20503 20373 20275 20266 20197 20055 19900 19831 19856 19769 19672 19636 19648 19648 19600 19480 19391 19166 18984 18705 18458 18424 18297 18177 17983 17925 17878 17737 17522 17491 17531 17578 17621 17572 17537 17473 17529 17334 17246 17069 16932 16758 16471 16378 16238 15947 15774 15621 15554 15485 15346 15319 15393 15373 15348 15227 15186 15254 15240 15098 15051 14848 14758 14640 14650 14517 14370 14319 14326 14441 14443 14400 14465 14274 14089 13967 13857 13787 13752 13650 13532 13495 13434 13502 13453 13320 13213 13131 13044 12896 12811 12768 12798 12685 12546 12352 12176 12129 11978 11924 11850 11686 11628 11529 11358 11349 11227 11256 11262 11146 11121 11209 11226 11175 11031 10889 10873 10719 10678 10663 10563 10374 10280 9984 9815 9752 9644 9575 9536 9551 9548 9464 9466 9436 9428 9525 9586 9574 9591 9539 9460 9450 9357 9149 9059 8906 8877 8858 8811 8936 8981 9022 8954 9067 9218 9306 9432 9281 9158 8958 8837 8811 8913 8818 8806 8728 8769 8756 8864 8919 9034 9119 9123 9194 9288 9453 9645 9536 9525 9606 9582
19774 19908 20051 20179 20251 20289 20330 20455 20538 20474 20375 20217 20086 20054 20172 20260 20308 20507 20551 20698 20751 21013 21113 21272 21516 21631 21682 21548 21567 21689 21711 21835 21911 21849 21796 21714 21666 21546 21500 21547 21472 21595 21700 21600 21608 21594 21540 21532 21450 21460 21400 21358 21434 21300 21235 21123 21105 21017 20884 20801 20782 20671 20617 20537 20422 20477 20397 20523 20591 20622 20562 20508 20442 20468 20474 20462 20565 20455 20367 20414 20384 20223 20180 20068 20026 20010 19911 19917 19883 19814 19762 19650 19519 19341 19216 18942 18637 18451 18363 18291 18171 17986 17955 17821 17600 17606 17609 17660 17665 17697 17662 17627 17601 17416 17237 17038 16873 16760 16536 16419 16220 16072 15767 15642 15651 15626 15554 15479 15443 15560 15572 15454 15401 15359 15434 15320 15215 15125 14988 14895 14785 14740 14552 14496 14552 14532 14631 14588 14570 14449 14317 14229 14252 14114 13964 13877 13680 13727 13605 13574 13603 13537 13392 13357 13218 13102 12972 12958 12933 12768 12581 12374 12207 12175 12143 12096 11968 11858 11729 11615 11527 11398 11311 11288 11205 11207 11164 11139 11185 11092 10948 10895 10849 10779 10675 10561 10500 10428 10262 9981 9779 9668 9653 9519 9496 9521 9480 9454 9352 9328 9321 9395 9485 9444 9468 9464 9379 9362 9281 9157 9006 8974 8981 8879 8842 8894 8947 8980 9013 9013 9149 9224 9244 9079 9000 8814 8807 8858 8852 8755 8739 8669 8676 8682 8833 8854 8960 9077 9158 9176 9328 9406 9570 9526 9433 9450 9478
