16610 16603 16535 16450 16375 16357 16404 16418 16325 16336 16223 16102 16109 16203 16277 16076 16008 15880 15858 15693 15631 15608 15686 15730 15820 15859 15908 15860 15937 15877 15896 16156 16106 16080 16080 16080 16055 16000 16096 16213 16218 16117 16074 16109 16117 16070 16184 16324 16303 16170 15980 15937 15775 15699 15614 15633 15695 15604 15581 15604 15590 15610 15574 15505 15550 15632 15623 15701 15668 15738 15685 15655 15516 15668 15705 15776 15845 15810 15826 15782 15830 15831 15860 16010 16026 16064 16052 16065 16048 15951 15782 15817 15732 15640 15642 15637 15580 15642 15791 15797 15817 15806 15888 15922 15979 16211 16515 16778 16940 17228 17423 17760 17988 17985 18039 18127 18262 18279 18427 18565 18647 18495 18414 18401 18305 18423 18467 18590 18667 18805 18813 18887 18937 18991 19015 19025 19075 19162 19236 19247 19342 19420 19632 19688 19886 19833 19866 19799 19824 19783 19806 19837 19903 20075 20119 20274 20320 20303 20305 20296 20475 20524 20594 20599 20740 20760 20665 20923 21053 20988 21065 21178 21199 21176 21129 21100 21015 20827 20720 20552 20452 20276 20148 20077 20034 20112 20162 20162 20162 20239 20312 20186 20300 20151 20099 20188 20303 20285 20214 20273 20360 20598 20683 20894 21122 21142 21166 21126 21175 21075 21094 20967 20877 20834 20794 20739 20715 20675 20693 20725 20674 20765 20766 20718 20780 20830 20914 21057 21108 21136 21258 21385 21448 21412 21276 21108 21009 21054 21134 21138 21110 21076 20986 20999 21052 21221 21291 21437 21501 21584 21755 21860 21987 22119 22153 22101 22158
16854 16877 16794 16704 16540 16573 16498 16492 16389 16285 16259 16172 16167 16244 16276 16166 16145 16060 15900 15792 15693 15719 15798 15913 15912 15987 16028 15972 16022 15987 15884 16166 16118 16118 16118 16118 16082 15995 16047 16200 16258 16214 16106 16148 16065 16139 16232 16284 16324 16203 16070 15944 15913 15871 15732 15711 15652 15559 15590 15603 15608 15563 15554 15563 15657 15635 15723 15678 15699 15760 15785 15763 15682 15725 15722 15791 15855 15827 15796 15901 15910 15974 15926 15974 16095 16038 16095 16070 16077 16015 15945 15871 15759 15730 15770 15769 15684 15663 15672 15759 15799 15789 15818 15934 16058 16276 16577 16808 16946 17281 17556 17739 17938 18074 18173 18291 18297 18386 18483 18496 18624 18581 18455 18338 18288 18383 18568 18678 18710 18794 18859 18914 19065 19179 19175 19162 19203 19194 19263 19331 19308 19460 19594 19699 19851 19842 19872 19816 19874 19851 19937 19889 19955 20047 20080 20284 20414 20407 20436 20454 20593 20635 20768 20801 20961 20921 20920 21057 21116 21153 21145 21309 21375 21267 21119 21150 21085 20875 20711 20540 20444 20322 20211 20226 20082 20164 20238 20263 20263 20288 20361 20436 20291 20252 20121 20084 20141 20177 20298 20302 20329 20628 20810 20937 21059 21136 21127 21142 21249 21238 21162 21021 20928 20952 20874 20832 20690 20712 20705 20703 20689 20752 20808 20742 20747 20711 20795 20941 21060 21150 21182 21405 21555 21376 21286 21118 21002 21016 21079 21009 21051 21002 21047 21150 21173 21204 21267 21398 21536 21642 21738 21833 22045 22083 22133 22145 22203
16962 16882 16927 16716 16625 16599 16574 16497 16404 16340 16322 16339 16231 16286 16321 16234 16295 16099 15962 15885 15825 15863 15883 15960 15966 16071 16101 16031 16063 16003 16070 16186 16152 16152 16152 16152 16096 16099 16043 16166 16257 16122 16101 16107 16077 16259 16368 16385 16438 16317 16277 16131 16081 15920 15794 15813 15879 15851 15788 15719 15740 15792 15712 15657 15626 15695 15874 15912 15886 15815 15824 15829 15842 15823 15802 15931 15944 15976 15952 15949 16046 16027 15945 16132 16224 16218 16199 16157 16193 16164 16040 15879 15874 15861 15908 15847 15769 15724 15762 15809 15784 15805 15809 15965 16147 16364 16579 16724 16916 17220 17523 17791 17975 18089 18115 18296 18342 18345 18500 18482 18543 18526 18434 18358 18360 18485 18556 18589 18556 18646 18833 18885 19002 19163 19240 19186 19284 19350 19377 19362 19394 19577 19654 19725 19833 19925 19940 19901 19902 19920 20013 20072 19993 20157 20190 20344 20433 20585 20646 20762 20858 20874 21009 21017 21186 21190 21137 21209 21237 21265 21183 21268 21314 21211 21264 21210 21102 20911 20860 20638 20487 20462 20246 20303 20161 20191 20264 20314 20314 20314 20387 20464 20328 20235 20237 20191 20241 20291 20339 20315 20350 20595 20818 20925 21057 21087 21189 21234 21205 21163 21132 21051 21010 21025 20922 20894 20818 20767 20717 20716 20685 20686 20749 20735 20752 20750 20809 20990 21085 21081 21164 21253 21399 21257 21165 21049 21026 20978 21031 21039 21046 21088 21161 21203 21342 21317 21301 21458 21675 21689 21823 21899 22038 22155 22140 22187 22220
17028 16979 16943 16810 16665 16718 16753 16609 16545 16427 16376 16410 16352 16377 16339 16310 16354 16276 16080 15933 15897 15870 15935 15965 16005 16176 16260 16195 16175 16134 16195 16197 16186 16186 16186 16186 16123 16232 16134 16091 16174 16115 16096 16046 16113 16331 16456 16570 16623 16502 16492 16394 16198 16145 15981 16027 15995 16026 16042 15964 15994 15988 15857 15732 15613 15797 15964 16013 16058 15949 15962 15925 15941 16019 15996 16004 16073 16061 16153 16147 16081 16139 16085 16266 16405 16342 16183 16165 16192 16216 16131 15959 15914 15914 15922 15924 15814 15771 15820 15836 15746 15898 15926 16097 16243 16464 16621 16790 16965 17193 17462 17777 17994 18122 18158 18185 18261 18331 18402 18454 18540 18408 18354 18344 18323 18391 18430 18427 18451 18645 18751 18805 18946 19155 19309 19271 19359 19467 19492 19556 19554 19619 19702 19842 19907 19908 19951 19944 19976 20098 20168 20164 20070 20184 20201 20302 20491 20708 20825 20952 21083 21128 21287 21257 21337 21326 21304 21252 21315 21318 21262 21224 21297 21246 21292 21147 21044 21006 20897 20703 20603 20548 20395 20373 20245 20244 20313 20417 20417 20417 20442 20521 20351 20274 20250 20330 20381 20420 20418 20413 20363 20523 20707 20849 20960 21070 21232 21203 21246 21178 21211 21267 21220 21160 20994 20907 20887 20789 20701 20633 20634 20600 20677 20716 20656 20772 20872 20938 21036 21167 21246 21241 21265 21241 21126 21026 21013 20969 21035 21041 21071 21172 21268 21388 21422 21418 21464 21564 21762 21815 21896 21890 21997 22143 22266 22226 22251
17133 17101 16959 16873 16859 16785 16844 16764 16666 16635 16529 16547 16475 16379 16446 16403 16322 16225 16238 16138 16072 16171 16202 16218 16188 16307 16307 16304 16292 16150 16215 16216 16216 16216 16216 16216 16233 16184 16130 16166 16280 16191 16220 16203 16270 16348 16459 16642 16717 16614 16660 16505 16226 16254 16185 16210 16248 16218 16178 16140 16098 15972 15915 15761 15667 15827 16000 16081 16180 16129 16079 16122 16114 16102 16188 16167 16130 16206 16187 16201 16176 16228 16251 16383 16504 16403 16287 16323 16362 16295 16161 16080 16035 16028 15968 15879 15772 15848 15836 15807 15852 15963 16000 16200 16401 16463 16641 16783 16908 17107 17378 17747 17939 18028 18116 18225 18287 18294 18386 18385 18479 18409 18484 18409 18456 18422 18417 18354 18421 18646 18728 18853 19007 19235 19384 19364 19399 19534 19613 19678 19649 19739 19908 20044 20098 20038 20079 20063 20128 20164 20170 20174 20150 20235 20394 20493 20659 20905 20980 21058 21217 21314 21422 21447 21543 21563 21640 21615 21580 21557 21428 21463 21416 21415 21363 21190 21172 20987 20799 20744 20595 20516 20440 20442 20432 20401 20336 20471 20471 20471 20471 20552 20282 20362 20386 20437 20443 20399 20401 20393 20392 20507 20664 20799 20928 21068 21121 21201 21271 21217 21282 21266 21272 21135 21084 20946 20991 20807 20712 20753 20738 20702 20631 20671 20658 20759 20868 20974 20997 21068 21107 21101 21223 21064 20958 20924 20917 21029 21062 21117 21075 21107 21227 21318 21516 21570 21607 21779 21885 21852 21914 21854 21958 22159 22273 22229 22337
17344 17231 17046 16987 16939 16871 16878 16859 16770 16780 16764 16659 16531 16449 16493 16417 16322 16314 16404 16330 16275 16377 16393 16365 16264 16313 16340 16395 16337 16210 16190 16237 16250 16250 16250 16250 16291 16278 16193 16285 16328 16284 16326 16308 16329 16434 16450 16685 16814 16782 16709 16595 16361 16409 16363 16429 16375 16353 16394 16265 16183 16133 16008 15829 15763 15901 15992 16146 16284 16222 16241 16240 16350 16286 16318 16229 16170 16302 16335 16331 16275 16275 16363 16405 16482 16457 16386 16361 16406 16382 16316 16237 16281 16130 15996 15905 15829 15913 15923 15959 15925 16060 16184 16393 16502 16565 16678 16785 16964 17202 17316 17655 17874 17915 18030 18104 18192 18325 18351 18407 18532 18463 18506 18444 18477 18344 18332 18408 18431 18575 18747 18900 19078 19278 19378 19392 19455 19552 19748 19752 19834 19974 20090 20215 20218 20190 20251 20194 20201 20199 20284 20242 20318 20343 20464 20588 20820 21081 21219 21327 21431 21503 21667 21775 21837 21815 21855 21750 21757 21673 21579 21569 21465 21450 21394 21294 21199 20961 20804 20692 20618 20596 20501 20475 20546 20394 20650 20589 20589 20589 20589 20552 20338 20398 20440 20520 20518 20439 20398 20352 20371 20437 20516 20671 20887 20949 21090 21254 21381 21312 21363 21378 21314 21224 21086 20988 20994 20881 20803 20812 20721 20679 20714 20652 20563 20716 20783 20864 20955 20930 21010 21057 21136 20994 20905 20844 20882 20954 20980 21047 21058 21159 21265 21376 21537 21657 21803 21831 21916 21825 21821 21902 21904 22024 22203 22262 22306
17234 17090 17017 16991 16993 16902 16882 16819 16773 16781 16740 16669 16653 16611 16615 16521 16286 16347 16422 16371 16235 16238 16245 16259 16181 16270 16282 16366 16278 16228 16127 16247 16259 16269 16269 16269 16297 16302 16173 16194 16166 16279 16303 16327 16341 16318 16362 16482 16634 16568 16475 16447 16342 16299 16364 16397 16386 16363 16447 16275 16250 16170 15907 15855 15700 15857 15934 16153 16364 16350 16349 16385 16407 16370 16390 16264 16247 16328 16255 16334 16384 16308 16338 16349 16409 16389 16456 16438 16405 16320 16265 16172 16220 16132 15950 15910 15729 15892 15996 16010 16060 16234 16375 16459 16628 16601 16706 16877 17018 17194 17369 17576 17758 17802 17972 18018 18125 18278 18352 18376 18528 18407 18424 18448 18428 18356 18209 18288 18350 18482 18688 18786 18988 19059 19148 19178 19290 19390 19569 19678 19667 19854 19984 20029 20043 20154 20197 20169 20174 20119 20162 20249 20443 20455 20497 20620 20755 20998 21065 21254 21339 21379 21497 21615 21690 21666 21758 21711 21734 21546 21492 21524 21483 21371 21305 21233 21210 21061 20933 20776 20663 20604 20587 20588 20671 20538 20816 20682 20682 20682 20682 20581 20428 20435 20419 20514 20523 20488 20429 20492 20510 20566 20649 20742 20873 20963 21142 21317 21476 21467 21412 21359 21270 21243 21170 21012 20966 20960 20926 20813 20766 20695 20644 20646 20512 20734 20817 20902 21033 20991 21001 21112 21140 21079 20940 20942 20902 20949 20988 20945 20957 21039 21170 21280 21482 21536 21653 21748 21834 21771 21807 21809 21873 22019 22183 22243 22269
17103 17001 16976 16949 16928 16918 16900 16759 16723 16729 16668 16708 16719 16663 16679 16538 16304 16301 16364 16344 16224 16140 16144 16198 16222 16281 16316 16304 16168 16120 16166 16267 16276 16285 16285 16285 16295 16297 16286 16127 16131 16165 16211 16249 16239 16330 16370 16438 16421 16349 16304 16312 16318 16311 16310 16368 16346 16376 16420 16338 16296 16144 15885 15811 15763 15833 15964 16115 16367 16399 16411 16505 16574 16635 16575 16414 16347 16285 16284 16313 16403 16387 16352 16432 16402 16370 16420 16354 16329 16305 16209 16150 16108 16013 16025 15808 15633 15895 16049 16143 16195 16386 16466 16584 16670 16738 16834 16914 16954 17154 17385 17552 17656 17769 17969 17998 17938 18099 18283 18316 18423 18453 18430 18311 18281 18297 18192 18217 18211 18410 18589 18654 18777 18821 18917 19092 19146 19335 19428 19486 19527 19600 19794 19828 19989 20099 20116 20106 20064 20135 20153 20320 20445 20509 20465 20668 20748 20863 21018 21120 21214 21281 21269 21354 21423 21592 21653 21698 21633 21535 21498 21427 21378 21392 21308 21297 21317 21180 20968 20961 20828 20705 20634 20768 20777 20980 20882 20780 20780 20780 20713 20610 20499 20516 20430 20463 20575 20526 20528 20530 20535 20613 20756 20768 20865 21007 21181 21314 21482 21454 21493 21351 21312 21242 21192 21077 20883 20978 20953 20906 20801 20724 20701 20647 20586 20656 20780 20919 21042 21110 21108 21183 21150 20991 20899 20936 20966 21018 20982 20983 20980 20991 21103 21291 21368 21550 21611 21671 21682 21751 21858 21892 21945 22032 22120 22150 22255
17149 17113 17113 16987 16955 16915 16884 16869 16763 16743 16760 16772 16802 16677 16666 16495 16390 16331 16388 16309 16306 16285 16184 16228 16180 16216 16251 16300 16214 16149 16165 16275 16283 16290 16287 16287 16290 16290 16275 16097 16087 16198 16239 16208 16272 16317 16275 16368 16343 16231 16175 16232 16150 16180 16250 16259 16348 16348 16355 16278 16265 16171 15884 15817 15785 15821 15973 16194 16273 16344 16482 16497 16562 16533 16582 16471 16497 16497 16435 16413 16466 16408 16382 16410 16417 16407 16376 16344 16376 16300 16257 16157 16151 16017 15880 15804 15593 15876 16021 16178 16278 16421 16517 16606 16671 16795 16839 16895 16925 17094 17376 17432 17581 17745 17818 17929 17935 18002 18174 18217 18307 18343 18358 18377 18315 18256 18132 18048 18046 18268 18393 18421 18500 18648 18878 18899 18977 19155 19299 19422 19477 19556 19728 19696 19816 19951 20015 20055 20026 20069 20150 20227 20360 20434 20434 20543 20626 20802 20965 21028 21130 21216 21231 21296 21334 21439 21469 21556 21521 21408 21362 21380 21394 21424 21460 21356 21315 21271 21124 21050 20932 20831 20748 20762 21133 21041 20945 20911 20911 20879 20781 20674 20565 20585 20477 20466 20560 20533 20612 20602 20539 20590 20783 20797 20974 21088 21196 21291 21411 21475 21529 21324 21249 21208 21221 21020 20812 20892 20929 20830 20760 20771 20695 20664 20736 20742 20877 20910 21019 20995 20970 21026 21102 20979 20959 20950 20903 20856 20886 20852 20964 21017 21077 21227 21256 21372 21541 21605 21641 21796 21850 21788 21852 21937 22092 22057 22147
17102 17119 17150 17049 16984 16910 16852 16857 16893 16786 16779 16747 16795 16776 16737 16574 16451 16367 16315 16334 16378 16293 16221 16130 16022 16177 16257 16285 16251 16109 16071 16021 16291 16296 16290 16277 16277 16274 16254 16232 16008 16167 16230 16259 16229 16201 16139 16171 16222 16182 16074 16051 16044 16118 16246 16285 16380 16303 16307 16276 16209 16146 15966 15789 15689 15901 16103 16173 16273 16381 16524 16586 16577 16597 16584 16530 16594 16574 16484 16533 16470 16416 16338 16277 16308 16302 16254 16248 16322 16283 16190 16161 16100 15925 15855 15727 15671 15765 15939 16119 16340 16403 16443 16527 16630 16715 16818 16784 16867 17094 17279 17426 17564 17636 17766 17795 17924 17922 17997 18045 18111 18222 18227 18276 18237 18186 18094 18043 17996 18196 18298 18374 18349 18485 18737 18790 18898 18976 19182 19319 19396 19487 19556 19665 19711 19827 19893 19949 19946 19963 20028 20241 20342 20339 20428 20537 20573 20713 20919 21059 21085 21196 21189 21206 21162 21156 21215 21286 21440 21420 21309 21306 21359 21473 21488 21393 21427 21352 21299 21119 20934 20887 20870 20843 21162 21071 20975 20975 20975 20913 20816 20482 20542 20613 20604 20590 20635 20686 20663 20564 20553 20667 20710 20782 20968 21069 21096 21207 21397 21475 21478 21342 21310 21229 21177 21018 20831 20801 20871 20816 20759 20780 20727 20726 20850 20828 20883 20971 21027 20951 20861 20931 20940 20962 20940 20862 20835 20793 20744 20791 20853 20868 20945 21119 21272 21292 21410 21487 21691 21735 21772 21812 21775 21928 21991 22022 22153
17149 17150 17190 17152 17023 16982 16867 16798 16839 16698 16708 16690 16825 16779 16717 16620 16457 16402 16313 16371 16438 16286 16140 16159 16016 16175 16200 16236 16151 16101 15943 16035 16016 16300 16290 16274 16257 16257 16236 16216 16199 16012 16094 16163 16129 16134 16034 16058 16028 15926 15899 16036 16063 16103 16158 16204 16357 16329 16321 16258 16202 16096 15905 15788 15675 15791 15989 16009 16161 16252 16330 16460 16582 16616 16567 16623 16633 16481 16425 16461 16339 16391 16411 16373 16292 16235 16183 16226 16296 16290 16206 16056 16005 15833 15801 15652 15535 15828 15994 16173 16307 16364 16386 16530 16636 16666 16743 16740 16794 17029 17236 17379 17558 17630 17641 17729 17850 17876 17954 17890 17934 18036 18028 18005 18070 18079 17997 17983 17871 18049 18244 18299 18263 18382 18630 18705 18904 19038 19136 19269 19386 19420 19552 19668 19722 19844 19882 20048 20071 20142 20252 20323 20517 20512 20593 20694 20710 20851 21013 20998 21134 21215 21189 21229 21115 21113 21231 21317 21500 21455 21324 21307 21402 21397 21500 21440 21488 21452 21379 21270 21083 21061 20951 21300 21217 21128 21098 21098 21069 20979 20884 20546 20554 20650 20617 20606 20641 20611 20696 20687 20745 20742 20765 20934 21055 21087 21219 21338 21420 21434 21405 21419 21365 21282 21246 21117 20872 20893 20865 20830 20858 20788 20735 20788 20932 20976 20916 20933 21035 20951 20922 21002 21047 21041 21000 20902 20914 20862 20807 20840 20966 20995 21050 21074 21177 21295 21366 21506 21678 21706 21810 21810 21826 21937 22068 22156 22163
17080 17186 17167 17166 17075 17099 17008 16881 16766 16698 16677 16680 16732 16700 16718 16602 16586 16449 16341 16353 16422 16298 16174 16177 16064 16189 16223 16165 16083 15979 15939 15930 16005 16296 16282 16262 16244 16224 16215 16195 16177 16154 15994 15992 15971 15932 15900 15930 15894 15824 15840 15930 16031 16079 16169 16253 16347 16391 16353 16360 16305 16115 15952 15762 15654 15782 15812 15871 16016 16111 16209 16383 16480 16502 16545 16531 16571 16376 16267 16345 16310 16303 16398 16268 16232 16240 16185 16194 16311 16234 16208 16094 15970 15821 15755 15668 15470 15793 16047 16160 16340 16402 16384 16567 16664 16713 16732 16750 16794 17025 17233 17282 17457 17467 17546 17575 17726 17784 17786 17807 17841 17859 17938 17874 17896 17950 17931 17818 17710 17940 18091 18147 18251 18380 18552 18670 18814 18920 19059 19173 19355 19381 19424 19563 19617 19829 19928 20048 20220 20298 20373 20454 20641 20641 20692 20782 20760 20869 20999 21039 21131 21186 21216 21223 21148 21175 21205 21289 21442 21372 21378 21368 21380 21356 21435 21454 21517 21461 21367 21322 21203 21219 21154 21325 21244 21156 21156 21156 21100 21010 20698 20728 20648 20715 20691 20686 20640 20596 20629 20767 20851 20816 20880 21001 21053 21092 21226 21343 21376 21353 21268 21331 21369 21295 21296 21149 21008 20978 20926 20947 20925 20824 20724 20766 20935 20984 20969 21017 21040 21099 21106 21141 21077 20992 21007 21017 20967 20964 20852 20985 21009 21125 21140 21115 21088 21213 21248 21376 21591 21688 21881 21880 21947 22083 22172 22158 22189
17049 17029 17019 17023 17094 17105 17037 16903 16727 16713 16717 16669 16670 16650 16584 16569 16639 16485 16404 16324 16395 16248 16128 16020 15983 16020 16150 16172 16130 16086 15963 15966 15936 15978 16264 16243 16225 16205 16185 16166 16146 16125 16106 16089 15981 15905 15881 15813 15896 15888 15807 15858 15999 16090 16173 16335 16405 16401 16405 16279 16200 16021 15947 15759 15626 15816 15897 15964 16034 16088 16068 16325 16408 16451 16472 16485 16447 16413 16252 16276 16285 16275 16421 16353 16269 16237 16151 16227 16295 16236 16161 16114 15962 15866 15706 15555 15469 15695 15938 16089 16306 16369 16360 16609 16726 16748 16749 16822 16816 16910 17074 17203 17352 17374 17492 17514 17617 17719 17798 17752 17710 17793 17746 17662 17631 17662 17777 17752 17669 17804 17938 18056 18113 18254 18455 18530 18709 18846 18855 19071 19251 19375 19340 19498 19656 19795 19927 20067 20255 20305 20433 20552 20668 20708 20761 20772 20747 20923 21059 21062 21221 21190 21141 21142 21107 21252 21256 21370 21397 21349 21353 21349 21430 21451 21577 21542 21621 21507 21475 21468 21374 21300 21267 21373 21295 21267 21267 21267 21160 21071 20850 20731 20705 20753 20792 20788 20697 20690 20711 20774 20936 20922 20923 21023 21148 21143 21257 21308 21282 21306 21267 21359 21379 21261 21254 21114 21011 21045 21004 21046 20980 20884 20755 20758 20879 20858 20965 20936 20929 21066 21046 21053 21081 21072 21075 21044 20981 20933 20915 20962 21103 21096 21141 21093 21133 21197 21331 21485 21554 21642 21843 21956 22075 22108 22169 22235 22279
17029 16996 16924 17022 17019 17074 17022 16874 16791 16716 16747 16671 16525 16486 16572 16689 16716 16573 16478 16385 16311 16153 15958 15934 15859 15943 16066 16064 16098 16022 15926 15939 15907 15916 15968 16232 16216 16195 16175 16156 16128 16088 16059 16040 16020 16009 15989 15789 15785 15797 15788 15831 15947 16061 16091 16296 16389 16394 16392 16331 16197 16014 15902 15793 15689 15776 15892 15943 15997 16042 16042 16197 16339 16357 16385 16355 16409 16330 16185 16172 16167 16249 16339 16279 16290 16260 16215 16219 16275 16185 16090 16016 15939 15875 15702 15551 15496 15754 15944 16161 16254 16373 16420 16572 16668 16771 16857 16882 16832 16911 17039 17202 17302 17385 17383 17516 17559 17642 17703 17715 17629 17623 17606 17551 17432 17542 17621 17651 17648 17776 17849 18004 18087 18206 18321 18376 18493 18693 18772 18975 19229 19282 19347 19562 19663 19909 20054 20133 20321 20342 20462 20659 20735 20761 20907 20864 20861 20952 21020 21155 21187 21090 21118 21207 21192 21266 21241 21301 21315 21400 21457 21442 21375 21544 21597 21587 21614 21583 21540 21538 21584 21507 21483 21396 21345 21345 21345 21345 21217 21095 20937 20835 20768 20842 20832 20827 20760 20703 20735 20819 20930 20972 21019 21167 21257 21220 21164 21294 21314 21201 21210 21285 21293 21234 21178 21063 21040 21033 21096 21029 20928 20877 20812 20865 20821 20823 20848 20824 20849 20993 21056 21069 21201 21182 21040 20994 20942 20959 20902 20975 21086 21038 21043 21070 21161 21235 21322 21461 21497 21664 21838 21906 22093 22116 22177 22337 22372
16856 16802 16804 16924 16960 16878 16873 16730 16700 16603 16698 16595 16637 16598 16544 16560 16611 16512 16367 16298 16211 16040 15879 15796 15816 15979 16009 16000 16040 15963 15908 15840 15687 15776 15795 15931 16199 16177 16156 16137 16128 16088 16059 16020 15988 15956 15935 15924 15900 15890 15751 15804 15961 15959 16041 16222 16287 16270 16318 16257 16231 16119 15980 15822 15754 15952 16042 16010 16087 16141 16252 16311 16444 16366 16396 16329 16391 16327 16155 16074 16012 16109 16096 16113 16114 16196 16159 16142 16230 16103 15924 15919 15823 15788 15821 15679 15592 15720 15940 16067 16231 16358 16351 16505 16638 16793 16828 16849 16805 16879 16969 17102 17232 17277 17339 17485 17553 17578 17619 17680 17700 17618 17559 17457 17374 17428 17533 17634 17641 17682 17779 17951 18011 18086 18240 18266 18491 18667 18744 18827 19035 19085 19209 19357 19465 19655 19903 20009 20194 20316 20384 20541 20628 20745 20821 20782 20726 20864 20899 20957 21031 21031 20983 21055 21070 21165 21126 21167 21214 21436 21547 21525 21537 21553 21651 21653 21629 21661 21692 21654 21654 21601 21479 21440 21416 21416 21416 21416 21245 21156 21021 20991 20969 20952 20950 21015 20967 20956 20941 20941 20870 20926 21053 21070 21159 21104 21087 21231 21381 21296 21321 21299 21220 21096 21026 21069 21062 21062 21083 20992 20864 20821 20829 20818 20784 20742 20808 20834 20853 20980 21008 21034 21168 21130 21073 21056 21074 21049 21040 21113 21061 21128 21094 21197 21256 21439 21535 21583 21568 21763 21984 22042 22252 22355 22378 22430 22464
16763 16712 16720 16701 16811 16829 16725 16696 16568 16525 16593 16560 16625 16662 16592 16567 16521 16461 16318 16254 16171 15970 15793 15768 15846 15973 16012 15956 15947 15902 15764 15717 15552 15600 15664 15773 15933 16154 16134 16116 16107 16088 16059 16020 15988 15956 15924 15898 15877 15868 15854 15851 15950 15957 16041 16102 16180 16197 16329 16338 16228 16132 16122 15981 15835 15996 16165 16175 16235 16290 16412 16496 16460 16473 16413 16377 16363 16304 16185 16017 15825 15866 15875 15960 16038 16089 16041 16095 16091 15984 15819 15861 15816 15797 15816 15770 15615 15770 15839 16122 16292 16265 16358 16496 16583 16769 16833 16729 16699 16721 16828 16958 17160 17268 17363 17465 17463 17541 17553 17682 17713 17572 17400 17411 17378 17463 17543 17552 17522 17648 17684 17814 17965 18009 18053 18197 18383 18578 18651 18737 18821 18976 19172 19222 19234 19497 19845 19978 20192 20328 20384 20461 20552 20600 20753 20667 20689 20683 20773 20909 20981 20911 20916 20957 20965 21088 21105 21131 21217 21381 21565 21615 21654 21730 21722 21734 21713 21698 21783 21742 21753 21655 21539 21485 21485 21485 21485 21485 21501 21375 21161 21204 21143 21100 21005 21101 21085 21036 21030 20967 20859 20891 21041 21112 21103 21117 21105 21283 21435 21373 21320 21175 21158 21097 20922 20967 21022 20943 20980 20925 20857 20903 20902 20823 20802 20800 20889 20836 20871 20904 21031 21057 21111 21028 21023 21063 21195 21139 21147 21165 21065 21108 21174 21243 21321 21518 21638 21680 21760 22004 22150 22246 22442 22436 22533 22507 22504
16656 16596 16656 16608 16758 16712 16686 16642 16504 16556 16586 16599 16654 16544 16530 16530 16488 16369 16248 16133 15964 15872 15681 15692 15790 15803 15851 15817 15785 15756 15617 15504 15475 15552 15608 15657 15689 15620 16115 16097 16089 16069 16059 16020 15988 15956 15924 15898 15872 15856 15845 15842 15837 15834 16061 16035 16149 16137 16288 16224 16264 16131 16120 16016 15957 16082 16312 16307 16325 16391 16426 16433 16477 16391 16421 16287 16301 16204 16075 15887 15649 15713 15797 15949 16015 15955 15845 15862 15937 15799 15785 15727 15777 15746 15805 15756 15796 15794 15909 16015 16169 16310 16439 16524 16650 16783 16828 16724 16680 16719 16773 16883 17087 17128 17199 17246 17357 17454 17435 17627 17688 17580 17431 17393 17294 17347 17440 17432 17492 17623 17663 17749 17877 17972 18053 18153 18213 18328 18434 18502 18632 18838 19009 19055 19089 19304 19667 19890 20054 20163 20227 20430 20493 20514 20653 20629 20562 20524 20661 20744 20781 20821 20746 20801 20870 20918 21045 21086 21226 21353 21603 21706 21683 21758 21878 21904 21792 21755 21800 21735 21835 21763 21696 21551 21551 21551 21551 21551 21429 21464 21341 21335 21336 21278 21166 21169 21228 21146 21132 21030 20813 20907 21063 21141 21085 21146 21080 21216 21355 21389 21330 21239 21098 20908 20864 20909 20914 20924 20898 20914 20869 20870 20879 20740 20766 20826 20828 20874 20891 20980 20956 21029 21031 20973 21070 21117 21151 21108 21157 21190 21111 21132 21289 21365 21411 21588 21812 21895 22005 22136 22166 22362 22534 22551 22564 22648 22599
16637 16555 16529 16573 16603 16644 16662 16519 16470 16552 16575 16573 16642 16567 16491 16498 16526 16291 16107 16040 15852 15722 15690 15689 15769 15783 15684 15593 15615 15560 15532 15444 15326 15394 15466 15461 15448 15332 15298 16071 16062 16040 16030 16010 15988 15956 15924 15898 15872 15854 15843 15841 15835 15833 15970 16032 16045 16115 16188 16243 16340 16195 16174 16183 16169 16277 16380 16420 16456 16470 16498 16500 16478 16346 16327 16226 16143 15977 15934 15777 15529 15618 15619 15800 15966 15873 15777 15791 15823 15733 15670 15621 15687 15754 15829 15811 15885 15868 15945 15987 16118 16316 16523 16559 16699 16715 16722 16592 16580 16749 16815 16832 16928 16991 16947 17119 17195 17270 17377 17523 17543 17474 17406 17252 17213 17273 17289 17368 17556 17621 17640 17765 17855 17947 18003 18018 18124 18136 18213 18317 18546 18720 18810 18947 18975 19216 19510 19681 19927 20098 20192 20322 20355 20395 20455 20455 20440 20410 20489 20607 20705 20719 20618 20709 20685 20794 20898 21015 21260 21459 21567 21711 21729 21885 21944 21963 21911 21790 21797 21804 21825 21882 21816 21615 21615 21615 21615 21615 21461 21542 21533 21479 21451 21412 21295 21360 21330 21257 21183 21027 20885 20960 21012 21086 21048 21160 21156 21215 21309 21254 21219 21129 20939 20820 20814 20790 20878 20871 20884 20888 20889 20826 20783 20731 20739 20813 20811 20852 20908 20931 20830 20825 20949 21010 21183 21150 21214 21205 21244 21180 21127 21210 21290 21411 21621 21804 21996 22117 22190 22287 22281 22470 22596 22565 22615 22676 22614
16558 16537 16505 16491 16548 16462 16449 16387 16324 16432 16398 16494 16505 16489 16365 16432 16485 16276 16121 15976 15694 15685 15659 15668 15657 15600 15480 15526 15493 15445 15396 15240 15197 15231 15317 15290 15241 15252 15245 15249 15210 15202 15300 15959 15946 15924 15913 15898 15872 15854 15840 15838 15834 15832 15831 15900 15909 16006 16193 16245 16265 16172 16133 16108 16152 16315 16479 16434 16502 16484 16409 16452 16503 16418 16315 16293 16175 16047 15851 15631 15435 15443 15453 15724 15826 15769 15779 15733 15734 15735 15679 15758 15726 15813 15969 15910 15802 15860 15951 16054 16185 16357 16431 16495 16615 16653 16649 16654 16585 16620 16721 16834 16924 16986 16979 17163 17282 17302 17329 17369 17440 17448 17360 17268 17241 17273 17292 17466 17588 17693 17784 17908 17937 17984 18021 18093 18074 18232 18268 18437 18673 18758 18746 18851 18894 19098 19304 19501 19857 19901 19961 20074 20193 20305 20387 20316 20237 20284 20405 20471 20627 20637 20577 20686 20707 20790 20872 20942 21137 21264 21472 21631 21676 21777 21777 21781 21779 21783 21770 21783 21745 21706 21672 21656 21673 21673 21673 21673 21793 21580 21572 21594 21613 21477 21464 21429 21306 21206 21205 21155 20997 21082 21029 21079 21102 21145 21203 21278 21265 21147 21104 21098 21026 20920 20839 20814 20875 20865 20825 20789 20844 20857 20765 20773 20654 20614 20634 20721 20660 20768 20729 20769 20849 20968 21039 21036 21160 21161 21116 21102 21094 21258 21310 21524 21699 21782 21946 22126 22297 22367 22348 22445 22523 22588 22629 22715 22774
16567 16507 16547 16468 16481 16395 16328 16304 16188 16265 16341 16417 16454 16379 16362 16433 16406 16230 16125 15841 15646 15551 15556 15485 15455 15339 15307 15318 15373 15341 15244 15081 15022 15041 15076 15009 15018 15104 15114 15186 15197 15166 15116 15078 15130 15273 15859 15854 15851 15843 15839 15837 15833 15832 15830 15761 15885 15993 16169 16234 16281 16211 16128 16218 16182 16390 16503 16451 16431 16367 16357 16458 16468 16407 16300 16246 16081 15948 15832 15628 15319 15425 15416 15614 15721 15714 15709 15681 15589 15674 15717 15787 15854 15906 15991 15854 15845 15939 15994 16122 16378 16445 16446 16582 16607 16625 16556 16548 16621 16595 16677 16843 16893 16935 17106 17131 17248 17220 17169 17257 17227 17316 17394 17373 17293 17367 17366 17546 17637 17754 17994 18035 18080 18126 18066 18054 18065 18215 18308 18534 18725 18677 18624 18619 18710 19009 19199 19412 19750 19825 19857 19956 20132 20125 20221 20114 20109 20248 20354 20462 20572 20596 20618 20612 20680 20779 20847 20909 21083 21206 21385 21510 21561 21638 21704 21796 21774 21695 21731 21683 21549 21634 21618 21698 21729 21729 21729 21729 21806 21556 21600 21720 21843 21624 21521 21412 21339 21278 21316 21162 21093 21107 21000 21026 21168 21188 21233 21226 21193 21186 21081 21083 21041 20937 20916 20891 20837 20719 20697 20725 20736 20776 20739 20741 20623 20603 20457 20518 20506 20540 20681 20765 20748 20754 20837 20976 20997 20938 20980 21107 21174 21265 21420 21526 21698 21863 21971 22220 22411 22504 22485 22537 22497 22574 22676 22768 22827
16511 16434 16411 16432 16416 16317 16218 16164 15970 16083 16260 16352 16370 16330 16292 16287 16385 16162 15966 15785 15561 15589 15516 15389 15377 15334 15174 15243 15217 15126 15034 14958 14909 14790 14819 14758 14827 14802 14811 14975 15042 15104 15115 15088 15121 15204 15372 15469 15842 15835 15833 15833 15833 15832 15832 15834 15791 15877 16068 16122 16239 16234 16217 16293 16317 16479 16503 16482 16415 16417 16392 16371 16371 16283 16238 16113 15958 15833 15708 15483 15208 15318 15380 15458 15607 15594 15499 15543 15516 15519 15665 15727 15924 15928 15949 15973 15972 16086 16119 16250 16360 16445 16514 16531 16529 16475 16460 16528 16590 16592 16769 16843 16807 16844 16983 17123 17181 17186 17114 17093 17082 17173 17286 17278 17253 17351 17389 17622 17741 17845 18072 18023 18102 18159 18201 18179 18104 18224 18400 18464 18643 18722 18697 18658 18639 18884 19157 19348 19533 19601 19662 19836 19963 19938 20017 20019 20038 20242 20326 20444 20619 20585 20577 20555 20585 20730 20860 20868 21026 21101 21269 21422 21545 21561 21726 21758 21769 21690 21708 21582 21554 21527 21499 21718 21762 21762 21762 21762 21822 21686 21737 21810 22008 21754 21633 21500 21356 21371 21395 21262 21155 21123 21080 21064 21132 21138 21146 21213 21127 21183 21152 21114 21095 20996 20867 20800 20718 20693 20794 20800 20773 20725 20585 20599 20466 20456 20303 20364 20405 20386 20505 20463 20484 20580 20785 20900 21032 20962 20987 21158 21179 21247 21375 21520 21669 21881 22019 22159 22404 22491 22517 22556 22559 22663 22731 22930 22987
16392 16379 16267 16291 16283 16244 16124 15988 15858 16027 16077 16146 16232 16266 16186 16232 16274 16012 15865 15699 15580 15544 15489 15429 15309 15226 15161 15152 15152 15078 14906 14820 14732 14584 14545 14576 14559 14574 14613 14761 14865 14973 14997 14997 15020 15115 15299 15299 15372 15832 15830 15832 15831 15831 15831 15832 15829 15847 15943 16035 16159 16315 16375 16373 16352 16470 16524 16467 16464 16389 16350 16329 16225 16144 16116 16003 15940 15798 15567 15425 15186 15246 15379 15469 15508 15424 15372 15351 15362 15432 15535 15791 15930 15951 15959 15943 16028 16068 16187 16382 16453 16413 16465 16421 16435 16422 16376 16517 16537 16640 16755 16755 16764 16869 16878 17020 17084 17029 16939 16886 16953 17052 17259 17310 17340 17456 17530 17678 17801 18009 18132 18117 18217 18278 18311 18244 18216 18307 18369 18519 18670 18717 18708 18689 18665 18894 19133 19284 19356 19386 19539 19610 19731 19788 19820 19863 19943 20198 20390 20476 20609 20522 20524 20584 20596 20650 20787 20802 20890 20985 21121 21279 21470 21562 21665 21751 21773 21662 21653 21602 21441 21380 21424 21754 21823 21823 21823 21823 21850 21775 21886 22001 22073 21913 21691 21568 21440 21453 21356 21221 21172 21175 21228 21179 21087 21090 21157 21137 21186 21162 21195 21134 21114 21012 20837 20757 20703 20782 20823 20753 20741 20670 20509 20403 20279 20262 20145 20185 20239 20211 20299 20337 20311 20452 20698 20880 20983 21037 20991 21177 21255 21347 21379 21530 21601 21734 21961 22171 22453 22492 22509 22524 22567 22689 22763 22993 23155
16360 16331 16341 16308 16302 16188 16129 16027 15873 15966 16066 16148 16090 16161 16086 16119 16234 15969 15865 15633 15477 15527 15553 15450 15320 15235 15139 15169 15194 15029 14948 14907 14797 14740 14825 14786 14780 14796 14825 14932 14974 14966 15038 15011 15113 15147 15252 15344 15373 15403 15830 15832 15831 15831 15831 15831 15828 15805 15911 16035 16019 16203 16269 16288 16361 16449 16395 16451 16394 16453 16359 16386 16231 16106 16097 15932 15887 15777 15634 15488 15294 15424 15467 15466 15600 15502 15558 15554 15408 15539 15625 15823 15953 16023 16021 16083 16053 16206 16261 16471 16497 16392 16407 16466 16503 16498 16551 16584 16596 16658 16759 16842 16797 16837 16901 17048 17136 17113 17132 17131 17201 17315 17441 17445 17421 17508 17577 17727 17815 17944 18012 18158 18167 18169 18290 18262 18316 18353 18369 18536 18640 18631 18705 18626 18591 18743 18920 19086 19167 19174 19333 19420 19570 19668 19754 19811 19822 20102 20235 20427 20541 20489 20455 20475 20530 20626 20691 20686 20855 20995 21114 21285 21445 21595 21656 21692 21793 21666 21598 21507 21413 21437 21466 21771 21849 21849 21849 21849 21862 21809 22006 22128 22129 21977 21699 21664 21559 21562 21513 21437 21368 21316 21400 21260 21165 21166 21228 21189 21260 21275 21108 21126 21142 20995 20844 20800 20728 20771 20749 20781 20759 20743 20713 20573 20443 20433 20351 20296 20295 20334 20368 20394 20453 20630 20875 20915 21054 21125 21157 21214 21294 21413 21441 21502 21662 21820 22053 22288 22470 22516 22558 22667 22715 22762 22852 22965 23152
16402 16396 16354 16279 16323 16239 16252 16140 15909 16021 16168 16117 16065 16038 16100 16128 16208 15963 15845 15602 15486 15558 15552 15430 15338 15296 15191 15205 15246 15110 15033 15020 14981 15008 14982 14964 14883 14884 14965 15065 15137 15091 15065 15086 15208 15266 15322 15284 15363 15374 15829 15832 15830 15829 15829 15829 15826 15821 15943 15944 15944 16071 16198 16260 16352 16372 16290 16378 16449 16466 16458 16381 16312 16177 16148 15976 15742 15711 15601 15501 15488 15527 15503 15583 15698 15615 15657 15665 15571 15584 15639 15816 16058 16029 16052 16163 16197 16333 16439 16536 16534 16457 16466 16589 16610 16709 16709 16599 16589 16680 16765 16880 16943 16905 16987 17087 17137 17130 17216 17338 17342 17402 17529 17515 17524 17579 17631 17791 17886 17967 18011 18161 18200 18194 18283 18340 18385 18379 18466 18572 18590 18632 18620 18578 18521 18582 18719 18879 18921 19066 19132 19287 19330 19406 19588 19560 19636 19934 20138 20257 20369 20393 20440 20349 20351 20474 20586 20644 20806 20990 21121 21210 21346 21496 21579 21724 21856 21758 21663 21446 21321 21385 21527 21543 21892 21892 21892 21892 21892 21922 22035 22133 22151 22011 21817 21775 21773 21621 21578 21489 21481 21496 21491 21331 21268 21304 21239 21280 21446 21325 21140 21159 21122 21010 20976 20775 20697 20725 20702 20750 20800 20842 20816 20690 20635 20520 20485 20471 20460 20500 20426 20536 20561 20787 20941 21003 21082 21206 21222 21258 21370 21367 21450 21514 21702 21890 22085 22228 22381 22495 22548 22702 22921 22911 22922 23099 23182
16434 16546 16533 16442 16451 16304 16220 16109 15957 16059 16174 16187 16137 16162 16178 16177 16276 16079 15936 15701 15556 15589 15628 15492 15396 15372 15201 15207 15190 15070 15024 15061 14990 15030 15013 15092 15092 15110 15073 15198 15178 15195 15243 15227 15329 15254 15262 15300 15307 15428 15385 15833 15830 15827 15827 15827 15823 15818 15848 15870 15996 16017 16073 16241 16385 16363 16303 16326 16413 16485 16434 16307 16243 16183 16071 15955 15727 15698 15730 15602 15610 15605 15580 15737 15792 15790 15870 15845 15716 15681 15750 15842 16015 16027 16105 16150 16320 16330 16448 16539 16539 16570 16573 16710 16825 16785 16797 16765 16674 16828 16833 16909 17040 17049 17034 17124 17248 17219 17256 17461 17505 17495 17485 17472 17602 17585 17710 17782 17967 18009 18036 18158 18224 18294 18306 18425 18494 18439 18524 18515 18522 18495 18527 18421 18438 18537 18539 18629 18793 18926 18991 19129 19220 19298 19387 19377 19481 19672 19899 20120 20244 20215 20248 20223 20314 20363 20459 20498 20639 20808 21025 21132 21348 21429 21615 21781 21863 21756 21640 21444 21343 21414 21491 21581 21909 21909 21909 21909 21909 22010 22084 22155 22188 22098 21915 21945 21906 21841 21669 21619 21542 21542 21565 21338 21224 21333 21271 21270 21409 21340 21158 21210 21186 21125 20996 20900 20793 20796 20798 20903 20983 20977 20959 20907 20765 20671 20632 20706 20742 20698 20654 20667 20598 20859 20976 21034 21124 21237 21261 21365 21372 21450 21503 21630 21850 22063 22198 22321 22470 22605 22644 22820 22959 23071 23095 23146 23212
16592 16622 16636 16559 16488 16301 16201 16071 15978 16116 16134 16184 16140 16169 16266 16319 16287 16098 15945 15817 15628 15663 15643 15596 15564 15484 15317 15239 15174 15196 15134 15126 15057 15115 15063 15101 15201 15210 15290 15277 15316 15424 15424 15424 15396 15276 15225 15286 15278 15413 15526 15831 15828 15821 15821 15821 15820 15814 15882 15844 15935 16017 16055 16219 16306 16236 16286 16322 16432 16427 16381 16268 16282 16146 16019 15930 15777 15757 15809 15795 15698 15721 15673 15797 15903 15966 15983 15974 15929 15853 15899 15936 16050 16105 16113 16216 16410 16417 16532 16587 16553 16697 16716 16833 16972 16916 16852 16829 16821 16884 16946 17052 17034 17154 17166 17237 17300 17380 17399 17565 17614 17516 17505 17541 17571 17687 17878 17905 17970 17946 18032 18146 18138 18201 18390 18541 18589 18612 18531 18438 18474 18512 18488 18392 18404 18426 18398 18470 18542 18734 18858 18908 19042 19156 19271 19334 19378 19535 19738 19913 20018 20102 20177 20174 20226 20371 20416 20431 20569 20734 20905 21083 21241 21383 21606 21710 21794 21701 21552 21463 21455 21477 21459 21515 21924 21924 21924 21924 21924 22156 22111 22239 22274 22237 22100 22109 22037 21920 21823 21740 21649 21669 21578 21433 21309 21376 21325 21376 21469 21347 21236 21196 21141 21107 21098 21011 20922 20965 20892 21000 21097 21112 21025 20975 20862 20829 20878 20905 20937 20873 20827 20816 20760 20845 20992 21085 21278 21342 21374 21341 21358 21543 21632 21886 22019 22135 22347 22435 22507 22714 22828 22965 23075 23205 23221 23262 23211
16568 16509 16554 16471 16511 16435 16327 16244 16110 16292 16290 16229 16207 16207 16340 16326 16332 16177 16031 15817 15628 15674 15642 15560 15565 15521 15324 15216 15111 15141 15089 15034 15061 15115 15193 15134 15191 15258 15232 15277 15349 15339 15416 15476 15454 15317 15273 15195 15177 15331 15415 15436 15826 15818 15816 15816 15816 15812 15803 15936 16080 16067 16126 16277 16378 16460 16477 16523 16547 16604 16502 16450 16412 16236 16142 16076 15933 15861 15948 15799 15731 15731 15810 15842 15961 15954 16010 15950 15938 15904 15968 16021 16074 16127 16169 16230 16388 16487 16485 16481 16524 16682 16757 16868 17068 16957 16908 16880 16806 16856 16965 17087 17177 17146 17238 17261 17384 17454 17419 17504 17675 17668 17686 17690 17659 17723 17900 18021 18026 18170 18196 18153 18162 18313 18429 18587 18588 18514 18548 18486 18415 18405 18415 18395 18317 18323 18354 18491 18555 18652 18698 18817 18962 19042 19115 19211 19221 19436 19566 19808 19913 19988 20055 20130 20257 20360 20470 20396 20552 20712 20784 20981 21254 21377 21493 21540 21669 21585 21465 21485 21443 21540 21569 21627 21936 21936 21936 21936 21936 22167 22210 22233 22365 22250 22193 22188 22049 21919 21886 21711 21620 21693 21545 21525 21445 21455 21359 21394 21396 21345 21242 21267 21206 21131 21075 21047 20927 20949 21055 21088 21188 21158 21074 21006 21008 20950 20999 20978 21016 21003 20919 20942 20852 20876 20916 21072 21259 21354 21430 21439 21457 21637 21761 21964 22103 22191 22329 22460 22553 22718 22740 22896 23135 23178 23271 23149 23117
16540 16461 16430 16447 16561 16517 16423 16362 16340 16442 16487 16379 16393 16336 16372 16325 16377 16214 16145 15883 15711 15629 15662 15636 15622 15477 15389 15259 15140 15095 14998 15058 15031 15083 15210 15223 15260 15320 15282 15299 15330 15343 15460 15483 15418 15328 15273 15089 15003 15168 15360 15450 15825 15816 15808 15808 15808 15806 15794 15980 16115 16073 16157 16294 16509 16521 16579 16636 16659 16722 16696 16628 16493 16428 16285 16199 16010 16004 15975 15946 15804 15870 15913 15979 16076 16028 16030 15949 15959 15982 16044 16018 16084 16188 16327 16353 16410 16426 16452 16569 16612 16662 16809 16906 17055 17006 17010 16900 16826 16911 17100 17198 17224 17239 17199 17392 17512 17538 17476 17580 17763 17799 17810 17814 17724 17823 17934 18015 18209 18288 18255 18292 18258 18359 18503 18562 18505 18487 18525 18381 18289 18377 18359 18240 18238 18263 18320 18430 18481 18596 18624 18802 18902 19030 19075 19061 19075 19203 19391 19659 19838 19921 19905 20068 20202 20328 20405 20371 20430 20564 20712 20987 21141 21296 21378 21472 21479 21525 21460 21482 21546 21610 21631 21949 21941 21941 21941 21941 21940 22162 22231 22226 22346 22251 22259 22209 22075 21927 21829 21727 21706 21690 21586 21532 21455 21395 21454 21418 21394 21298 21246 21275 21349 21244 21095 21061 20975 21103 21126 21184 21290 21164 21150 21142 21045 20971 21015 21092 21154 21150 21085 21052 20952 20925 20946 21119 21252 21321 21471 21515 21464 21693 21828 22014 22229 22263 22402 22503 22669 22746 22728 22973 23097 23114 23195 23131 23070
16527 16399 16421 16407 16456 16476 16446 16412 16408 16528 16537 16550 16514 16464 16392 16387 16368 16165 16107 15890 15757 15752 15698 15695 15628 15570 15450 15333 15175 15145 15012 15038 15064 15182 15308 15353 15362 15427 15410 15315 15299 15290 15397 15356 15297 15290 15177 15033 14985 15077 15260 15427 15509 15812 15801 15801 15801 15801 15792 15908 16020 16153 16269 16454 16588 16661 16691 16651 16688 16714 16770 16726 16533 16489 16337 16281 16101 16080 16121 16016 15948 16041 16114 16138 16027 16060 16016 16082 16055 16110 16135 16199 16196 16230 16345 16384 16412 16530 16527 16639 16651 16771 16816 16973 17137 17078 17004 16933 16945 17069 17160 17255 17301 17309 17258 17399 17516 17505 17575 17627 17801 17830 17845 17844 17747 17902 18051 18116 18270 18301 18386 18347 18304 18449 18449 18593 18553 18568 18523 18391 18258 18328 18274 18237 18255 18214 18326 18386 18340 18497 18522 18645 18657 18761 18958 19038 19068 19228 19319 19574 19713 19778 19845 20035 20129 20274 20322 20346 20397 20572 20644 20869 21101 21189 21169 21342 21384 21447 21471 21519 21628 21771 21785 21944 21943 21943 21943 21943 21943 22278 22365 22473 22479 22477 22371 22320 22235 22065 21966 21767 21689 21640 21540 21569 21524 21577 21552 21486 21524 21470 21318 21441 21431 21344 21259 21236 21075 21257 21323 21338 21330 21319 21297 21245 21145 21085 21037 21036 21131 21092 21114 21002 21000 20998 20946 21058 21130 21306 21430 21531 21497 21643 21794 21995 22352 22445 22472 22652 22777 22746 22703 22900 23004 23068 23066 23088 23085
16442 16439 16389 16440 16396 16426 16361 16428 16544 16529 16628 16632 16524 16398 16358 16335 16252 16128 16103 15920 15812 15730 15678 15586 15587 15488 15388 15314 15230 15202 15050 15071 15034 15209 15286 15393 15403 15467 15451 15453 15357 15369 15408 15358 15268 15125 15083 15006 14972 15144 15228 15318 15494 15811 15797 15797 15797 15797 15792 15968 16047 16177 16350 16423 16620 16610 16709 16776 16838 16755 16790 16758 16642 16509 16350 16303 16159 16128 16220 16127 16154 16250 16242 16210 16092 16039 16084 16167 16145 16236 16337 16265 16317 16382 16434 16446 16415 16539 16612 16666 16625 16777 16914 17017 17130 17059 16953 17008 17011 17169 17285 17282 17345 17400 17332 17421 17575 17613 17655 17770 17925 17845 17834 17912 17874 18074 18149 18176 18239 18322 18400 18431 18338 18460 18456 18570 18558 18522 18401 18310 18278 18193 18203 18166 18151 18248 18308 18270 18217 18315 18415 18463 18516 18607 18729 18892 18962 19155 19328 19461 19704 19728 19864 19898 20049 20131 20331 20315 20396 20495 20598 20798 20964 21067 21057 21272 21363 21418 21483 21648 21766 21825 21885 21933 21938 21938 21938 21938 21944 22324 22473 22577 22626 22647 22566 22481 22358 22151 22068 21922 21767 21678 21584 21647 21654 21694 21684 21644 21551 21531 21466 21536 21521 21423 21371 21354 21262 21334 21441 21456 21381 21449 21412 21326 21287 21203 21155 21133 21133 21151 21053 21064 20955 20985 21006 21038 21053 21252 21334 21431 21576 21736 21873 22056 22368 22555 22620 22661 22770 22799 22776 22936 23015 23015 22982 23050 23105
16392 16335 16367 16457 16478 16474 16401 16432 16541 16564 16614 16470 16407 16411 16372 16312 16279 16082 16031 15900 15756 15717 15637 15541 15471 15435 15404 15367 15298 15246 15220 15071 15007 15138 15286 15317 15381 15382 15331 15373 15291 15290 15349 15199 15068 15010 14959 14951 15070 15085 15205 15299 15463 15441 15793 15793 15793 15793 15793 15909 15974 16133 16174 16389 16533 16539 16574 16725 16786 16764 16739 16636 16619 16462 16277 16259 16122 16133 16222 16190 16128 16191 16198 16182 16141 16058 16118 16185 16132 16250 16276 16239 16269 16395 16409 16458 16393 16541 16655 16688 16675 16729 16896 17015 17199 17239 17184 17120 17207 17286 17312 17280 17357 17423 17466 17552 17599 17642 17615 17708 17840 17762 17814 17807 17784 17947 18117 18168 18201 18215 18284 18237 18267 18416 18433 18429 18436 18321 18309 18226 18118 18068 18051 17994 18129 18110 18189 18173 18058 18163 18345 18426 18423 18554 18625 18813 18932 19060 19205 19300 19553 19644 19704 19776 19885 20030 20148 20237 20206 20296 20465 20699 20927 21005 21081 21120 21169 21282 21472 21591 21662 21723 21898 21926 21932 21932 21932 21937 21946 22273 22453 22560 22659 22659 22526 22336 22253 22234 22124 22002 21751 21670 21696 21583 21524 21526 21609 21639 21637 21505 21496 21494 21486 21481 21473 21335 21278 21385 21377 21420 21373 21424 21370 21426 21328 21266 21272 21256 21133 21243 21225 21240 21157 21148 21093 21218 21271 21445 21504 21619 21715 21846 21982 22113 22381 22456 22516 22533 22647 22708 22733 22882 22995 22978 22989 23150 23221
16321 16345 16436 16489 16489 16519 16562 16538 16575 16615 16561 16471 16396 16317 16323 16289 16309 16084 15976 15899 15779 15650 15532 15430 15397 15387 15500 15373 15375 15387 15318 15196 15066 15116 15214 15241 15384 15292 15300 15267 15148 15137 15230 15102 14946 14986 14902 14972 15073 15024 15077 15200 15310 15382 15795 15795 15795 15795 15795 15882 15866 15968 16122 16305 16446 16487 16496 16632 16734 16674 16637 16648 16535 16427 16209 16089 16089 16146 16226 16112 16058 16059 16109 16087 16098 16165 16213 16208 16090 16132 16148 16271 16309 16452 16476 16417 16402 16567 16644 16617 16719 16815 16857 16996 17242 17295 17324 17283 17307 17288 17352 17418 17484 17453 17524 17667 17686 17614 17669 17656 17759 17801 17832 17822 17750 17968 18068 18192 18231 18211 18148 18213 18253 18258 18345 18380 18308 18199 18142 18077 17921 17821 17822 17865 17991 18003 18006 17941 17990 18115 18263 18342 18335 18429 18522 18675 18835 19000 19067 19147 19276 19425 19517 19585 19687 19837 19960 20055 20035 20097 20278 20621 20870 20909 21002 21017 21046 21281 21468 21610 21662 21629 21880 21910 21915 21915 21915 21936 21949 22245 22432 22642 22738 22689 22547 22306 22188 22208 22131 21992 21789 21748 21708 21631 21506 21502 21481 21584 21644 21586 21491 21548 21541 21589 21595 21431 21391 21359 21385 21455 21477 21456 21438 21441 21364 21401 21397 21321 21231 21248 21329 21316 21301 21286 21281 21361 21534 21586 21550 21768 21887 22002 22012 22261 22441 22391 22442 22427 22490 22643 22745 22825 22950 23002 23011 23126 23330
16371 16354 16443 16454 16369 16454 16540 16485 16566 16553 16570 16503 16457 16286 16299 16219 16260 16200 16084 15981 15870 15750 15674 15470 15410 15449 15579 15515 15482 15374 15347 15256 15177 15247 15264 15250 15289 15226 15201 15171 15101 15088 15068 15037 14882 14871 14881 14927 14997 15004 15099 15125 15196 15264 15802 15802 15802 15802 15802 15872 15863 15892 16073 16265 16443 16504 16440 16516 16534 16527 16559 16494 16534 16358 16227 16132 16141 16225 16173 16215 16174 16141 16239 16177 16252 16233 16289 16209 16143 16202 16205 16239 16297 16379 16530 16506 16425 16569 16732 16737 16876 16877 16878 16983 17219 17235 17270 17335 17359 17361 17373 17403 17486 17513 17563 17747 17734 17677 17711 17709 17739 17820 17824 17824 17763 17963 18033 18087 18198 18194 18104 18193 18161 18185 18223 18226 18081 18032 18076 17913 17847 17714 17716 17872 17904 17857 17881 17923 17949 17971 18120 18114 18159 18284 18419 18614 18726 18843 18816 18885 18945 19066 19163 19274 19472 19506 19595 19724 19882 19984 20191 20469 20702 20738 20852 20910 21010 21169 21345 21453 21575 21577 21868 21894 21894 21894 21894 21928 22069 22271 22518 22726 22855 22702 22597 22412 22168 22197 22089 21990 21753 21720 21607 21549 21542 21470 21515 21606 21735 21604 21575 21605 21562 21640 21588 21565 21478 21473 21512 21496 21565 21479 21457 21478 21416 21474 21515 21443 21402 21404 21477 21437 21410 21418 21429 21565 21728 21705 21727 21826 21927 22028 22059 22150 22325 22272 22300 22448 22429 22698 22879 22973 22963 23070 23183 23292 23435
16388 16338 16328 16294 16365 16450 16536 16550 16598 16595 16468 16422 16454 16327 16245 16260 16175 16199 16156 15978 15907 15764 15702 15537 15454 15555 15601 15599 15514 15387 15315 15243 15193 15192 15294 15205 15181 15173 15114 15173 15167 15137 15006 14900 14785 14889 14953 14922 14941 15067 15150 15105 15129 15256 15810 15810 15810 15810 15810 15705 15782 15831 15966 16232 16404 16417 16402 16405 16390 16489 16482 16425 16458 16458 16352 16225 16207 16216 16173 16160 16188 16236 16331 16260 16312 16348 16347 16292 16202 16286 16288 16326 16267 16420 16475 16459 16489 16586 16801 16918 16987 16951 16992 17059 17216 17313 17325 17469 17521 17442 17404 17399 17439 17516 17692 17834 17858 17805 17822 17737 17741 17748 17751 17809 17786 17836 17961 18069 18103 18167 18110 18104 18060 18020 18031 17978 17828 17924 17901 17809 17808 17717 17682 17758 17768 17783 17851 17844 17896 17949 17949 17955 17996 18154 18254 18404 18539 18593 18634 18691 18729 18820 18918 19077 19168 19198 19300 19465 19689 19928 20082 20325 20535 20639 20748 20808 20867 21104 21256 21368 21396 21773 21842 21862 21862 21862 21875 21922 21914 22170 22503 22765 22920 22788 22553 22354 22248 22170 22118 22007 21794 21674 21555 21561 21498 21482 21540 21694 21765 21676 21643 21656 21670 21596 21641 21543 21540 21602 21548 21669 21667 21578 21556 21521 21431 21520 21573 21593 21574 21540 21572 21469 21460 21514 21561 21753 21849 21878 21921 22012 22070 22087 22077 22130 22309 22317 22282 22426 22465 22743 22897 23052 23095 23239 23283 23458 23513
16375 16370 16313 16316 16320 16418 16545 16553 16528 16561 16457 16478 16456 16373 16234 16226 16227 16205 16170 16044 15866 15831 15707 15568 15467 15470 15519 15458 15430 15411 15294 15217 15142 15172 15089 15060 15047 15085 15040 15076 15055 15014 14823 14793 14719 14704 14780 14876 14829 14939 15043 15136 15146 15286 15832 15832 15832 15832 15832 15773 15788 15934 16037 16212 16489 16437 16383 16331 16380 16410 16440 16365 16396 16350 16262 16191 16206 16227 16255 16189 16147 16183 16244 16318 16296 16337 16275 16218 16206 16271 16264 16420 16450 16473 16549 16518 16628 16750 16906 16985 17089 17057 17157 17179 17301 17465 17487 17597 17570 17499 17543 17541 17488 17505 17630 17734 17842 17866 17755 17819 17760 17757 17842 17827 17752 17930 17980 18074 18115 18199 18185 18170 18087 18090 17953 17944 17775 17823 17819 17775 17802 17675 17586 17610 17706 17683 17704 17754 17821 17853 17864 17822 17909 18008 18189 18339 18516 18536 18462 18499 18523 18648 18769 18861 19046 19130 19139 19256 19506 19682 19896 20074 20298 20458 20608 20743 20818 20994 21171 21193 21315 21752 21827 21827 21827 21827 21856 21810 21929 22170 22386 22661 22919 22723 22608 22491 22291 22269 22139 22087 21875 21806 21690 21589 21432 21412 21455 21580 21705 21609 21631 21581 21561 21533 21600 21529 21416 21417 21450 21580 21660 21580 21577 21567 21519 21573 21624 21608 21681 21667 21598 21497 21464 21620 21693 21795 21977 21998 22037 22151 22292 22239 22233 22375 22439 22410 22319 22363 22424 22645 22862 23014 23118 23192 23325 23379 23559
16300 16245 16199 16198 16300 16451 16481 16557 16523 16516 16390 16499 16504 16433 16351 16312 16347 16271 16137 16040 15848 15788 15748 15704 15591 15581 15531 15498 15465 15299 15179 15101 15146 15099 14996 14975 14837 14856 14896 14895 14849 14839 14751 14752 14652 14625 14685 14748 14811 14942 14950 15157 15275 15294 15838 15847 15847 15847 15847 15904 15822 15958 16143 16256 16453 16407 16440 16353 16292 16312 16355 16312 16279 16274 16152 16105 16080 16131 16271 16146 16138 16084 16147 16228 16193 16190 16182 16199 16230 16239 16369 16484 16524 16540 16597 16657 16777 16846 17038 17149 17166 17211 17232 17271 17417 17537 17593 17662 17632 17640 17640 17537 17557 17590 17630 17728 17764 17836 17810 17780 17796 17876 17831 17795 17810 17938 18021 18007 18085 18116 18145 18131 18073 18090 17997 17898 17690 17664 17759 17736 17678 17672 17555 17592 17692 17686 17662 17809 17831 17743 17757 17813 17789 17920 18039 18224 18414 18409 18400 18474 18427 18621 18707 18792 18915 18909 18968 19117 19229 19457 19808 19944 20184 20311 20491 20670 20762 20841 21001 21177 21245 21707 21776 21776 21776 21776 21846 21853 22010 22144 22308 22511 22821 22815 22683 22591 22408 22325 22187 22133 21977 21829 21718 21575 21493 21506 21484 21505 21628 21610 21663 21640 21553 21499 21546 21469 21345 21357 21479 21524 21563 21644 21672 21629 21559 21555 21661 21690 21708 21791 21751 21671 21586 21758 21838 21958 22033 22083 22118 22299 22431 22419 22445 22446 22511 22463 22425 22412 22498 22753 22904 22982 23044 23211 23279 23354 23513
16214 16213 16167 16208 16255 16336 16431 16447 16545 16538 16466 16495 16466 16456 16359 16366 16289 16182 16039 16002 15935 15929 15849 15788 15661 15574 15528 15478 15305 15195 15118 15059 15054 15047 14967 14857 14798 14743 14690 14675 14648 14662 14539 14567 14618 14578 14558 14626 14756 14882 14928 15129 15293 15270 15853 15885 15885 15885 15885 15927 15872 16051 16219 16349 16492 16515 16479 16444 16265 16291 16321 16260 16206 16137 16126 16126 16102 16192 16190 16155 16204 16108 16077 16091 16177 16154 16175 16237 16312 16394 16478 16561 16636 16679 16760 16814 16868 17023 17286 17354 17324 17338 17416 17450 17545 17630 17728 17751 17748 17735 17721 17675 17659 17639 17663 17791 17827 17833 17769 17748 17733 17863 17825 17851 17883 18024 18059 18089 18115 18177 18201 18067 18054 17975 18000 17801 17689 17710 17670 17621 17589 17617 17565 17657 17707 17643 17629 17668 17752 17728 17695 17720 17727 17762 17849 18069 18247 18232 18226 18269 18303 18407 18517 18530 18636 18773 18867 18946 19100 19446 19752 19894 20080 20287 20399 20563 20839 20842 20949 21059 21215 21686 21724 21724 21724 21724 21821 21866 21939 22055 22262 22515 22720 22757 22655 22578 22580 22475 22268 22159 22024 21947 21786 21661 21659 21616 21627 21641 21727 21718 21750 21689 21629 21544 21551 21469 21297 21401 21362 21445 21584 21522 21585 21585 21473 21461 21595 21597 21683 21684 21689 21789 21736 21816 21839 21978 22040 22135 22269 22377 22515 22502 22554 22550 22649 22599 22467 22470 22567 22797 22926 23024 23144 23182 23203 23371 23529
16107 16025 16037 16156 16155 16306 16405 16466 16557 16569 16531 16502 16420 16463 16467 16421 16328 16142 16066 16046 16036 15913 15850 15779 15678 15561 15468 15363 15259 15182 14993 14924 14972 14960 14865 14737 14724 14635 14500 14457 14525 14488 14437 14442 14528 14569 14509 14683 14734 14887 14948 15056 15211 15182 15886 15904 15904 15904 15904 15927 16045 16114 16278 16420 16474 16450 16510 16469 16325 16353 16278 16244 16192 16171 16178 16244 16195 16203 16237 16237 16150 16187 16128 16128 16199 16236 16274 16235 16318 16430 16655 16664 16740 16777 16803 16950 17042 17210 17423 17552 17567 17534 17582 17670 17689 17781 17783 17800 17800 17724 17724 17682 17638 17620 17700 17768 17811 17759 17758 17718 17790 17882 17867 17902 18029 18127 18152 18079 18072 18141 18137 18129 18037 17938 17916 17802 17583 17611 17659 17572 17495 17516 17624 17569 17633 17699 17718 17678 17743 17677 17658 17633 17597 17630 17762 17896 18041 18049 18029 18006 18094 18285 18355 18335 18430 18569 18729 18848 19006 19331 19593 19742 19967 20181 20331 20523 20824 20950 20993 21112 21204 21643 21664 21664 21664 21664 21809 21810 21905 22106 22275 22546 22724 22640 22677 22698 22682 22502 22396 22324 22168 21992 21874 21755 21701 21680 21647 21714 21715 21746 21732 21678 21685 21692 21595 21480 21342 21378 21363 21404 21522 21490 21531 21527 21472 21467 21577 21570 21593 21703 21709 21852 21943 21962 21914 21995 22044 22118 22312 22394 22570 22650 22741 22767 22715 22706 22637 22634 22576 22811 22968 23142 23228 23280 23252 23378 23519
16025 15985 15954 16139 16216 16301 16392 16388 16535 16483 16351 16371 16307 16377 16315 16273 16181 16099 15996 15892 15828 15838 15811 15740 15576 15509 15416 15287 15044 15031 14919 14867 14976 14873 14856 14757 14727 14658 14518 14470 14466 14501 14487 14509 14587 14623 14621 14705 14807 14986 15102 15243 15431 15409 15936 15933 15933 15933 15933 15927 16017 16155 16310 16541 16673 16565 16555 16584 16446 16361 16214 16238 16196 16262 16168 16245 16276 16260 16239 16163 16133 16238 16227 16292 16267 16222 16217 16223 16289 16458 16506 16651 16749 16707 16699 16865 16934 17080 17211 17332 17373 17457 17466 17477 17515 17648 17585 17603 17648 17589 17661 17631 17583 17513 17580 17689 17691 17694 17638 17653 17672 17790 17748 17881 17897 17952 18042 17912 17942 17915 17968 17909 17930 17801 17791 17757 17586 17648 17699 17578 17522 17585 17576 17660 17630 17753 17803 17787 17719 17753 17710 17767 17737 17830 17834 17945 18179 18127 18072 17985 18007 18169 18300 18319 18440 18543 18760 18844 18978 19367 19576 19745 20004 20228 20353 20631 20759 20884 20890 21034 21045 21601 21601 21601 21601 21601 21738 21814 21908 22133 22205 22404 22485 22503 22484 22426 22475 22303 22203 22137 22002 21831 21734 21768 21695 21688 21761 21772 21821 21745 21768 21694 21570 21641 21586 21595 21536 21583 21547 21599 21644 21677 21625 21528 21466 21597 21626 21638 21649 21686 21672 21777 21851 21891 21990 22031 22125 22176 22341 22448 22561 22563 22613 22717 22662 22654 22665 22584 22515 22722 22829 22963 23061 23137 23149 23284 23417
15912 15952 15895 16049 16238 16239 16333 16366 16526 16429 16288 16223 16170 16241 16219 16151 16039 15877 15818 15819 15721 15686 15695 15619 15557 15416 15334 15176 14900 14947 14943 14869 14896 14908 14810 14728 14645 14634 14564 14568 14456 14412 14456 14625 14674 14749 14828 14814 14868 15144 15323 15436 15571 15626 15991 15964 15964 15964 15964 15927 16107 16281 16357 16622 16776 16717 16655 16684 16672 16427 16265 16249 16185 16273 16242 16306 16359 16304 16140 16095 16096 16159 16258 16324 16298 16205 16219 16276 16350 16374 16418 16588 16655 16704 16669 16672 16766 16910 17007 17082 17169 17258 17342 17443 17427 17486 17460 17489 17449 17453 17498 17462 17432 17507 17545 17631 17604 17489 17483 17511 17611 17626 17643 17776 17832 17883 17856 17774 17775 17834 17798 17720 17740 17737 17744 17708 17664 17663 17765 17718 17573 17566 17605 17654 17598 17760 17822 17720 17722 17769 17851 17817 17838 17876 17911 18089 18254 18151 18136 17988 17894 18070 18313 18410 18492 18642 18834 18972 19068 19362 19567 19781 20014 20302 20472 20646 20790 20875 20864 20935 20985 21540 21540 21540 21540 21540 21861 21962 21989 22115 22216 22253 22334 22249 22272 22299 22222 22157 22051 21997 21864 21689 21634 21689 21728 21757 21760 21804 21846 21769 21756 21713 21566 21579 21630 21570 21616 21648 21649 21730 21689 21723 21677 21641 21527 21692 21766 21697 21731 21680 21716 21817 21861 21950 22063 22065 22118 22170 22326 22364 22511 22480 22550 22595 22603 22583 22588 22402 22329 22540 22677 22798 22958 23036 23103 23240 23438
15843 15823 15878 15973 16140 16252 16333 16443 16531 16457 16217 16134 16046 16027 16073 16071 16047 15903 15729 15669 15697 15624 15547 15516 15451 15276 15142 14959 14842 14814 14792 14788 14795 14796 14682 14652 14657 14585 14543 14493 14502 14433 14526 14568 14671 14845 14959 14906 15050 15177 15427 15477 15665 16068 16017 15997 15997 15997 15974 15938 16197 16346 16499 16653 16789 16831 16749 16724 16735 16589 16309 16297 16267 16285 16293 16268 16399 16233 16108 16062 16073 16155 16133 16197 16203 16238 16221 16302 16328 16412 16417 16565 16625 16530 16567 16605 16602 16727 16785 16815 16902 17062 17123 17220 17201 17229 17162 17168 17206 17267 17245 17265 17271 17270 17224 17300 17416 17342 17350 17337 17456 17571 17643 17674 17727 17680 17700 17646 17549 17518 17520 17660 17716 17682 17709 17692 17578 17643 17787 17789 17778 17658 17621 17659 17657 17751 17774 17729 17700 17765 17941 17884 17988 17945 17982 18051 18266 18109 18019 17963 17929 18086 18200 18352 18436 18659 18820 18930 19052 19315 19499 19777 20058 20317 20452 20618 20705 20808 20841 20880 20952 21482 21482 21482 21482 21482 21789 21869 21930 21970 22033 22104 22114 22086 22067 22061 21994 21898 21781 21792 21705 21607 21530 21620 21681 21708 21727 21750 21770 21689 21679 21637 21562 21708 21756 21701 21707 21693 21652 21707 21800 21758 21763 21597 21585 21666 21812 21742 21809 21800 21765 21918 21949 22103 22161 22150 22189 22292 22397 22425 22486 22609 22583 22562 22525 22532 22499 22359 22259 22467 22671 22815 22887 22958 23089 23189 23280
15676 15746 15838 15944 16125 16215 16407 16470 16623 16422 16268 16184 16009 15990 16039 15999 15948 15803 15687 15670 15577 15542 15473 15312 15223 15090 15047 14903 14727 14696 14738 14709 14660 14550 14508 14558 14587 14523 14483 14509 14492 14526 14566 14632 14697 14826 15044 15047 15152 15311 15567 15621 16160 16104 16048 16048 16048 16032 15991 16204 16308 16559 16719 16834 16912 16884 16773 16759 16834 16652 16437 16389 16241 16312 16297 16328 16423 16277 16186 16219 16144 16178 16091 16082 16187 16186 16260 16329 16328 16311 16359 16405 16516 16439 16476 16421 16487 16510 16512 16669 16762 16770 16872 16927 16933 16930 16839 16859 16998 17041 17009 17070 17106 17127 17027 17123 17200 17251 17205 17239 17355 17407 17528 17534 17617 17562 17535 17337 17258 17300 17345 17518 17606 17584 17552 17575 17520 17614 17729 17760 17858 17838 17708 17720 17687 17737 17811 17734 17717 17798 17937 18007 18158 18077 18096 18108 18235 18127 17963 17983 17926 18005 18144 18217 18320 18559 18733 18786 18929 19179 19540 19806 20079 20241 20513 20593 20701 20736 20831 20930 20960 21444 21444 21444 21444 21444 21770 21771 21871 21800 21822 21885 21895 21813 21769 21684 21703 21702 21614 21543 21526 21477 21467 21561 21587 21627 21742 21791 21737 21668 21662 21661 21658 21771 21782 21765 21727 21666 21716 21812 21923 21821 21788 21635 21544 21654 21803 21794 21825 21839 21832 21948 22000 22122 22206 22180 22161 22287 22446 22465 22567 22642 22671 22572 22558 22485 22322 22181 22146 22417 22627 22759 22944 22980 22970 23097 23223
15642 15814 15937 15988 16132 16254 16427 16423 16485 16376 16153 15993 15909 15928 16041 15935 15981 15852 15792 15688 15521 15464 15430 15207 15135 15075 14948 14897 14755 14786 14798 14677 14600 14525 14491 14525 14559 14450 14424 14488 14459 14555 14763 14775 14842 14989 15070 15131 15117 15393 15541 15670 16173 16121 16076 16076 16076 16044 16002 16316 16427 16554 16753 16912 16980 16944 16855 16916 16901 16740 16562 16482 16443 16403 16343 16386 16414 16449 16338 16351 16254 16211 16192 16245 16280 16385 16408 16421 16441 16403 16408 16484 16520 16439 16376 16415 16406 16382 16475 16607 16783 16810 16776 16736 16755 16828 16887 16803 16886 16961 16971 16952 17063 17129 17094 17098 17105 17218 17198 17198 17286 17353 17349 17410 17341 17369 17292 17259 17192 17217 17239 17412 17532 17571 17537 17478 17504 17671 17721 17850 17960 17789 17760 17782 17737 17741 17801 17757 17724 17765 17905 18014 18215 18219 18148 18097 18120 18033 18032 17963 18032 18057 18126 18259 18415 18578 18782 18864 18862 19130 19563 19788 20021 20088 20307 20526 20599 20673 20777 20892 20964 21379 21379 21379 21379 21379 21585 21586 21682 21613 21639 21853 21917 21842 21786 21722 21652 21588 21514 21532 21520 21432 21402 21522 21600 21625 21608 21687 21665 21628 21605 21595 21663 21807 21884 21901 21792 21852 21826 21871 22028 21975 21852 21802 21681 21778 21780 21801 21867 21889 21848 21924 21984 22053 22133 22061 22089 22190 22326 22309 22373 22473 22552 22491 22507 22480 22342 22275 22208 22352 22588 22803 22932 22916 22935 23006 23086
15606 15813 15921 16092 16175 16239 16365 16316 16332 16197 16079 15969 15860 15941 15944 15949 15962 15923 15785 15592 15520 15455 15298 15110 14925 14880 14869 14840 14725 14760 14782 14664 14477 14447 14400 14548 14643 14518 14493 14549 14516 14629 14845 14892 14974 15114 15144 15188 15156 15424 15625 16263 16208 16156 16139 16139 16121 16071 16024 16483 16523 16621 16735 16880 17046 16957 16948 16985 16980 16878 16775 16682 16602 16555 16430 16540 16530 16543 16456 16376 16382 16417 16422 16410 16410 16502 16521 16460 16436 16473 16426 16465 16555 16379 16301 16265 16269 16359 16438 16582 16719 16805 16782 16721 16695 16739 16814 16792 16881 16877 16875 16872 16959 17042 17074 17130 17072 17132 17095 17189 17305 17233 17238 17174 17143 17186 17171 17186 17165 17223 17159 17259 17459 17477 17512 17480 17418 17609 17836 17909 17951 17847 17776 17792 17763 17877 17899 17801 17738 17815 17985 18151 18358 18269 18301 18154 18079 18076 18061 18060 18063 18066 18184 18311 18480 18562 18766 18789 18798 19136 19528 19741 19908 20010 20226 20426 20622 20678 20656 20801 20850 21351 21351 21351 21351 21351 21441 21472 21519 21567 21542 21734 21814 21835 21794 21719 21574 21469 21479 21480 21464 21398 21369 21576 21667 21641 21549 21581 21536 21484 21495 21525 21671 21771 21897 21965 21930 21882 21884 22022 22077 22010 21893 21814 21781 21801 21782 21812 21882 21904 21971 21915 21969 22063 22058 22097 22043 22150 22165 22172 22301 22323 22449 22506 22450 22447 22345 22291 22152 22321 22434 22702 22852 22930 22931 23011 23005
15517 15711 15823 16003 16062 16122 16274 16266 16250 16161 16021 15882 15873 15811 15880 15805 15862 15852 15672 15582 15480 15360 15196 14994 14886 14802 14852 14756 14689 14773 14790 14711 14493 14467 14362 14484 14574 14581 14511 14575 14600 14793 14967 15085 15124 15245 15202 15249 15250 15460 15646 16283 16227 16174 16174 16174 16138 16086 16394 16564 16663 16751 16821 16989 17124 17115 17045 17021 16976 16934 16776 16694 16651 16638 16533 16588 16546 16493 16522 16512 16514 16441 16434 16448 16416 16490 16549 16562 16525 16507 16590 16639 16592 16474 16402 16323 16264 16319 16360 16457 16675 16711 16683 16726 16672 16645 16731 16695 16778 16774 16868 16804 16925 16955 16882 16970 17102 17048 17119 17106 17158 17171 17087 17012 17016 17113 17086 17019 17018 17103 17056 17183 17399 17504 17532 17454 17420 17555 17741 17838 17914 17875 17860 17877 17936 17916 17944 17856 17852 17940 18139 18170 18296 18270 18280 18136 18047 17981 17978 18070 18074 18118 18214 18295 18510 18584 18730 18797 18820 19160 19478 19637 19839 20066 20317 20500 20656 20643 20598 20782 20793 21303 21303 21303 21303 21303 21373 21347 21383 21407 21434 21517 21650 21724 21668 21553 21479 21444 21522 21504 21434 21407 21412 21412 21540 21576 21531 21498 21422 21472 21548 21563 21734 21708 21805 21909 21966 21922 22034 22087 22059 22043 21995 21950 21811 21852 21793 21862 21959 21931 22003 21959 22018 22095 22092 22051 22156 22126 22213 22228 22280 22318 22258 22361 22355 22250 22171 22202 22108 22172 22351 22533 22716 22745 22673 22829 22876
15546 15643 15828 15897 16054 16172 16253 16260 16212 16072 15929 15834 15855 15788 15766 15728 15773 15778 15670 15543 15342 15232 15013 14840 14785 14769 14742 14688 14678 14677 14719 14662 14518 14402 14393 14423 14511 14528 14582 14599 14734 14849 14992 15132 15270 15316 15240 15286 15331 15464 16397 16328 16269 16250 16250 16229 16172 16122 16518 16692 16763 16867 17003 17076 17107 17089 17045 17062 17013 16926 16775 16824 16775 16777 16678 16546 16529 16501 16578 16599 16533 16542 16483 16532 16469 16459 16559 16571 16653 16593 16634 16657 16681 16556 16414 16321 16235 16311 16316 16453 16547 16608 16674 16613 16637 16562 16609 16732 16793 16713 16736 16741 16801 16775 16783 16848 17017 17005 17064 17074 17074 17069 16940 16949 16847 16974 16997 16918 16942 16927 17028 17187 17310 17390 17472 17409 17436 17596 17763 17804 17895 17937 18042 17986 17994 18017 18021 18051 17985 18187 18267 18297 18319 18223 18198 18090 17931 17944 17981 18045 18006 18163 18248 18391 18520 18679 18782 18862 18829 19088 19396 19639 19881 20054 20314 20512 20606 20677 20659 20722 20733 21282 21282 21282 21282 21282 21212 21190 21240 21293 21343 21442 21485 21544 21541 21454 21481 21499 21482 21370 21289 21302 21353 21375 21509 21522 21449 21404 21397 21416 21512 21576 21717 21727 21818 21977 22101 22059 22107 22121 22158 22078 22057 21995 21811 21793 21856 21904 21935 21898 21929 22016 22034 22074 22170 22104 22157 22154 22272 22244 22290 22295 22194 22208 22151 22040 21997 21998 21968 22012 22173 22303 22549 22593 22513 22635 22716
15669 15743 15809 15868 16000 16075 16189 16086 16008 16007 15834 15789 15859 15791 15770 15688 15740 15624 15540 15454 15267 15221 15058 14863 14831 14826 14794 14717 14620 14611 14683 14586 14543 14478 14478 14609 14695 14691 14776 14882 14974 15073 15132 15205 15368 15295 15381 15386 15504 15562 16430 16368 16327 16327 16327 16265 16204 16522 16621 16724 16773 16874 17026 17145 17167 17109 17023 17052 16947 16958 16917 16888 16889 16825 16795 16778 16696 16701 16698 16736 16655 16706 16553 16593 16428 16481 16498 16432 16497 16541 16573 16580 16583 16385 16308 16217 16083 16217 16287 16419 16442 16600 16607 16656 16632 16558 16643 16763 16801 16709 16735 16781 16800 16848 16794 16832 16991 16925 16951 17022 16918 16916 16835 16853 16741 16908 16949 16912 16927 16933 17014 17096 17217 17324 17403 17437 17439 17633 17795 17753 17914 17874 17952 17961 17978 18034 18069 18102 18097 18167 18209 18214 18303 18259 18225 18124 17981 17977 18114 18137 18192 18205 18336 18433 18449 18711 18856 18872 18961 19167 19524 19656 19884 20130 20287 20487 20613 20591 20500 20532 20629 21273 21251 21251 21251 21251 21185 21254 21203 21215 21342 21471 21504 21492 21611 21568 21563 21510 21514 21397 21297 21349 21403 21383 21462 21488 21439 21446 21333 21407 21568 21583 21730 21752 21805 22000 22045 21970 22066 22086 22076 21991 21928 21864 21752 21802 21760 21793 21861 21850 21859 21998 22099 22087 22125 22078 22167 22116 22181 22124 22139 22087 22055 22052 22086 22055 21959 21929 22023 22084 22164 22212 22408 22446 22441 22564 22782
15674 15693 15714 15810 16007 16114 16095 16054 15894 15868 15867 15836 15888 15812 15809 15680 15662 15538 15516 15328 15184 15123 15009 14904 14839 14747 14720 14635 14622 14561 14541 14485 14482 14557 14629 14710 14800 14894 14955 14995 15141 15179 15294 15333 15355 15368 15438 15508 15614 15677 16447 16386 16365 16365 16365 16284 16221 16615 16664 16777 16874 17016 17140 17186 17295 17128 17022 16987 17009 17094 17077 17021 16909 16893 16902 16940 16941 16807 16779 16902 16901 16844 16748 16617 16467 16462 16385 16389 16439 16426 16537 16535 16476 16241 16123 16018 15965 16077 16296 16334 16417 16504 16625 16575 16528 16624 16724 16745 16826 16735 16681 16761 16899 16894 16860 16860 16904 16842 16904 16901 16856 16748 16750 16755 16695 16839 16879 16875 16810 16938 17059 17112 17099 17249 17381 17406 17325 17568 17713 17754 17850 17870 17794 17888 17878 18002 18081 18179 18164 18270 18251 18270 18363 18351 18286 18137 17983 18018 18155 18312 18356 18361 18302 18313 18453 18701 18943 18964 19026 19308 19639 19794 19966 20157 20246 20510 20665 20625 20460 20419 20483 21254 21231 21207 21207 21207 21160 21136 21230 21270 21259 21379 21453 21506 21629 21582 21590 21516 21564 21369 21260 21313 21398 21455 21523 21491 21449 21363 21277 21360 21544 21607 21797 21842 21874 22034 22098 21946 21899 21869 21912 21872 21808 21756 21820 21759 21711 21729 21759 21827 21909 21933 22061 22069 22062 22099 22187 22172 22187 22065 22017 21941 21987 21909 21943 21911 21905 21983 21968 22021 22072 22184 22197 22389 22488 22622 22784
15640 15716 15822 15897 15974 15895 15958 15864 15846 15881 15882 15835 15912 15856 15833 15717 15677 15512 15451 15283 15218 15136 15087 15022 14924 14865 14830 14805 14674 14607 14588 14459 14423 14492 14642 14711 14860 15007 15113 15226 15354 15380 15406 15485 15475 15539 15588 15651 15648 16545 16479 16441 16441 16441 16407 16327 16620 16677 16835 16823 16882 17032 17131 17275 17303 17212 17166 17106 17149 17171 17187 17089 17103 17055 17057 17075 17115 16994 16967 17055 17047 16937 16834 16619 16485 16372 16327 16309 16360 16408 16361 16361 16285 16240 16126 15963 15879 16041 16261 16381 16459 16453 16562 16542 16493 16489 16599 16719 16786 16813 16779 16799 16867 16891 16850 16867 16915 16916 16889 16821 16757 16702 16690 16729 16648 16731 16815 16749 16662 16788 16946 16991 17095 17231 17252 17256 17280 17452 17540 17668 17774 17766 17823 17797 17792 17863 17972 18107 18231 18288 18372 18423 18409 18289 18297 18235 18111 18155 18223 18357 18424 18406 18431 18471 18497 18693 18942 18980 19085 19311 19640 19920 20098 20188 20342 20510 20553 20527 20462 20384 20433 21244 21221 21196 21172 21172 21136 21112 21089 21289 21366 21411 21414 21428 21522 21510 21627 21584 21523 21335 21327 21348 21519 21520 21601 21593 21491 21370 21363 21451 21512 21602 21754 21738 21817 21926 21927 21845 21865 21842 21789 21692 21663 21670 21765 21778 21726 21817 21758 21818 21876 21941 22167 22139 22104 22118 22202 22112 22104 21929 21920 21963 21923 21913 21996 21880 21897 21849 21818 21880 21942 22034 22083 22210 22388 22569 22726
15705 15797 15809 15777 15855 15781 15765 15744 15796 15863 15911 15872 15920 15884 15802 15720 15681 15565 15350 15254 15167 15172 15190 15112 15000 15042 15004 14890 14754 14650 14522 14383 14347 14507 14572 14719 14952 15113 15186 15312 15497 15544 15546 15579 15631 15732 15822 15763 15808 16565 16497 16479 16479 16479 16427 16350 16822 16896 16975 16931 16948 17090 17230 17304 17394 17305 17212 17270 17220 17253 17207 17164 17218 17216 17157 17203 17229 17172 17098 17101 17209 17039 16948 16782 16492 16372 16290 16235 16224 16265 16216 16208 16114 16064 16051 15919 15861 16070 16211 16354 16449 16487 16501 16527 16432 16460 16546 16654 16835 16753 16769 16858 16922 16920 16872 16916 16935 16883 16780 16752 16715 16667 16685 16578 16534 16616 16704 16715 16632 16746 16815 16962 16989 17111 17173 17175 17159 17372 17464 17578 17754 17838 17830 17805 17829 17891 17928 18071 18187 18358 18405 18406 18438 18318 18282 18216 18118 18270 18321 18422 18465 18587 18649 18662 18636 18778 19033 19145 19212 19409 19698 19916 20166 20309 20378 20445 20563 20529 20465 20455 20489 21223 21198 21173 21149 21131 21119 21097 21078 21067 21399 21464 21435 21472 21439 21563 21568 21550 21432 21368 21418 21470 21581 21660 21666 21619 21460 21447 21330 21394 21586 21662 21749 21735 21832 21849 21854 21826 21775 21728 21657 21544 21554 21649 21661 21697 21769 21822 21773 21780 21899 21987 22182 22106 22098 22145 22247 22132 21937 21847 21863 21887 21829 21869 21951 21931 21972 21882 21765 21858 21878 21872 21970 22105 22203 22420 22622
15632 15695 15740 15808 15797 15810 15733 15684 15733 15828 15851 15767 15794 15729 15716 15676 15608 15443 15221 15244 15095 15191 15189 15055 15029 14947 14911 14879 14759 14557 14479 14403 14260 14470 14557 14725 15001 15183 15370 15457 15650 15642 15644 15685 15768 15873 15929 15921 16670 16607 16553 16553 16553 16514 16463 16773 16945 16925 16977 17007 17028 17152 17257 17370 17382 17248 17222 17302 17258 17230 17349 17338 17382 17306 17298 17285 17347 17339 17260 17340 17396 17239 17118 16823 16634 16522 16471 16322 16258 16191 16214 16076 16020 16000 15967 15823 15806 15988 16067 16181 16367 16449 16458 16529 16505 16579 16592 16702 16786 16717 16787 16767 16799 16824 16826 16868 16853 16854 16756 16704 16680 16751 16790 16651 16564 16684 16721 16664 16567 16787 16807 16975 17005 17144 17139 17249 17247 17328 17331 17422 17533 17600 17688 17664 17768 17857 17884 17991 18143 18224 18286 18287 18324 18283 18262 18209 18095 18257 18395 18461 18428 18640 18713 18767 18762 18894 19095 19263 19329 19610 19827 19995 20210 20368 20459 20534 20620 20522 20470 20536 20490 20538 21185 21160 21136 21119 21109 21090 21075 21068 21068 21363 21372 21368 21360 21537 21581 21491 21393 21447 21437 21536 21605 21551 21628 21604 21439 21503 21414 21537 21652 21647 21679 21745 21862 21815 21810 21770 21784 21711 21693 21658 21657 21670 21769 21781 21763 21845 21821 21884 22036 22111 22205 22065 22071 22081 22123 22012 21897 21872 21772 21812 21816 21858 21895 21834 21911 21785 21735 21768 21752 21854 21853 22015 22257 22422 22526
15482 15633 15727 15673 15699 15749 15769 15700 15631 15656 15788 15706 15744 15624 15582 15486 15442 15359 15189 15159 15045 15096 15243 15107 15095 15001 14943 14803 14763 14588 14538 14391 14234 14378 14636 14873 15147 15348 15447 15648 15824 15750 15734 15759 15856 16018 16107 16174 16694 16629 16610 16610 16610 16547 16496 16814 17009 16983 16962 16948 17018 17174 17305 17304 17370 17328 17273 17249 17267 17304 17403 17454 17498 17486 17444 17437 17545 17415 17390 17433 17565 17348 17236 16991 16677 16629 16538 16374 16323 16189 16179 16086 16036 15877 15799 15727 15714 15809 15980 16158 16317 16341 16419 16443 16590 16596 16652 16752 16756 16730 16721 16741 16746 16694 16696 16794 16783 16716 16620 16575 16631 16662 16806 16777 16683 16720 16663 16653 16627 16803 16867 16989 16987 17149 17228 17190 17236 17290 17261 17308 17389 17552 17628 17575 17588 17654 17738 17922 18004 18120 18120 18236 18278 18196 18124 18106 18182 18246 18407 18474 18514 18720 18858 18906 18923 19035 19255 19268 19399 19669 19937 20164 20308 20346 20445 20514 20691 20610 20501 20562 20536 20492 20565 21136 21112 21097 21087 21086 21074 21069 21070 21075 21219 21304 21303 21398 21471 21399 21406 21459 21561 21576 21602 21543 21536 21570 21511 21473 21466 21632 21699 21664 21726 21741 21807 21852 21837 21717 21716 21776 21797 21683 21659 21777 21772 21798 21838 21883 21929 22049 22086 22167 22162 22074 21988 22093 22091 21917 21859 21829 21808 21780 21773 21753 21741 21794 21845 21829 21791 21681 21667 21774 21839 22070 22208 22294 22360
15495 15606 15684 15586 15651 15685 15677 15614 15638 15566 15647 15625 15600 15480 15519 15351 15266 15210 15114 15155 15089 15106 15144 15154 15167 15062 14990 14828 14757 14596 14528 14389 14256 14392 14670 14897 15088 15372 15521 15629 15888 15899 15895 15986 16005 16142 16256 16828 16739 16674 16674 16674 16651 16565 16880 16950 17099 17097 17132 17123 17125 17269 17321 17375 17434 17433 17499 17398 17469 17439 17474 17520 17595 17582 17488 17519 17657 17555 17613 17619 17713 17522 17400 17062 16870 16724 16552 16426 16360 16190 16159 15973 15881 15749 15783 15723 15726 15882 15973 16204 16277 16423 16410 16538 16680 16605 16576 16666 16644 16661 16647 16668 16752 16687 16681 16618 16642 16659 16676 16648 16647 16749 16782 16748 16757 16770 16809 16749 16738 16772 16866 16992 17022 17036 17153 17170 17234 17212 17217 17173 17267 17326 17419 17464 17501 17597 17701 17813 18011 18055 18125 18190 18289 18275 18115 18203 18210 18347 18420 18459 18514 18758 18929 18953 19059 19084 19222 19339 19555 19703 19984 20103 20225 20339 20435 20521 20612 20634 20567 20649 20689 20594 20588 20551 21089 21078 21074 21074 21074 21071 21072 21076 21075 21132 21205 21320 21483 21448 21575 21645 21661 21598 21613 21532 21545 21557 21513 21516 21533 21551 21623 21651 21710 21754 21800 21875 21864 21805 21797 21857 21858 21775 21751 21820 21757 21727 21793 21911 21910 21952 22075 22029 22063 21986 21872 22020 21984 21958 21841 21824 21842 21839 21848 21742 21761 21731 21709 21700 21697 21664 21679 21666 21801 21902 22040 22138 22251
15482 15520 15547 15593 15713 15691 15595 15583 15664 15536 15412 15370 15333 15289 15352 15340 15205 15136 15059 15008 15081 15135 15155 15117 15197 15095 14919 14775 14685 14603 14530 14373 14259 14498 14616 14843 15131 15364 15471 15670 15950 15919 15957 16088 16207 16304 16512 16869 16782 16760 16760 16760 16694 16604 17001 17161 17208 17209 17281 17266 17155 17282 17447 17531 17575 17538 17623 17590 17571 17586 17599 17619 17605 17632 17652 17694 17652 17766 17768 17797 17758 17616 17504 17220 17024 16834 16530 16405 16271 16164 16092 15883 15752 15671 15707 15705 15739 15865 16028 16178 16327 16412 16402 16602 16687 16583 16577 16644 16606 16610 16595 16610 16727 16608 16585 16603 16615 16605 16669 16712 16673 16759 16776 16821 16876 16872 16917 16786 16753 16777 16894 16975 17085 17059 17123 17262 17336 17327 17206 17124 17169 17218 17333 17346 17355 17503 17753 17849 17929 18055 18166 18231 18257 18251 18153 18184 18178 18388 18505 18527 18593 18763 18936 19089 19228 19229 19307 19444 19609 19839 20030 20076 20244 20428 20516 20611 20639 20643 20709 20692 20768 20647 20584 20523 20517 21067 21068 21070 21071 21070 21071 21072 21069 21063 21092 21196 21395 21500 21663 21709 21761 21719 21722 21634 21560 21592 21540 21557 21640 21577 21564 21700 21722 21736 21791 21839 21818 21939 21952 21914 21935 21895 21754 21750 21639 21672 21710 21807 21841 21914 21975 21997 21906 21904 21877 21945 21992 21991 21864 21903 21926 21887 21914 21789 21727 21637 21579 21638 21599 21569 21597 21617 21710 21792 21935 22102 22194
15424 15450 15490 15506 15617 15614 15523 15514 15511 15469 15333 15401 15401 15255 15264 15280 15172 15124 15090 15100 15133 15105 15188 15185 15195 15037 14865 14732 14673 14595 14590 14471 14298 14500 14733 14900 15124 15320 15455 15684 15934 15956 16026 16168 16259 16370 16518 16887 16802 16802 16802 16802 16717 16844 17005 17120 17146 17150 17230 17245 17192 17191 17337 17531 17546 17593 17610 17483 17451 17569 17544 17623 17609 17636 17667 17728 17692 17789 17762 17793 17742 17591 17509 17298 17086 16837 16658 16523 16353 16231 16123 15999 15900 15851 15852 15812 15752 15810 15943 16057 16239 16294 16344 16507 16566 16478 16577 16602 16550 16548 16495 16599 16716 16643 16586 16507 16469 16627 16686 16630 16659 16806 16833 16804 16797 16860 16786 16744 16645 16801 16852 16996 17056 17084 17077 17231 17333 17327 17200 17110 17139 17180 17141 17239 17329 17397 17622 17714 17780 17935 17996 18045 18104 18087 18024 18114 18183 18305 18360 18434 18604 18720 18805 18929 18989 19088 19135 19223 19456 19666 19749 19940 20104 20244 20296 20378 20548 20471 20531 20570 20713 20564 20477 20530 20514 20607 21068 21072 21072 21069 21067 21066 21062 21056 21051 21152 21191 21345 21533 21587 21728 21756 21698 21732 21712 21615 21611 21647 21754 21694 21684 21809 21819 21767 21838 21949 21970 21941 22007 21929 21963 21898 21915 21974 21868 21800 21848 21843 21920 21874 21905 21977 21952 21915 21951 21938 21984 22068 22093 22135 22201 22092 22098 22017 21909 21892 21773 21747 21735 21736 21742 21772 21938 21965 21973 22009 22134
15337 15454 15466 15567 15610 15588 15507 15379 15338 15340 15382 15412 15449 15296 15262 15200 15091 15141 15140 15115 15097 15192 15207 15150 15165 15004 14813 14730 14684 14697 14672 14507 14405 14626 14783 14922 15173 15232 15417 15643 15939 15967 16006 16212 16294 16344 16991 16922 16882 16882 16882 16846 16763 16969 17076 17062 17078 17075 17143 17168 17186 17210 17271 17462 17543 17489 17510 17521 17441 17530 17581 17549 17598 17616 17663 17732 17737 17684 17726 17752 17850 17727 17593 17360 17070 16855 16752 16606 16374 16272 16117 16119 16033 16009 15924 15860 15696 15827 15957 16039 16062 16183 16286 16378 16435 16406 16483 16420 16425 16446 16487 16557 16645 16597 16605 16542 16452 16520 16625 16582 16630 16742 16843 16810 16792 16751 16745 16751 16649 16762 16927 16927 17022 17002 17056 17168 17324 17258 17253 17214 17117 17089 17005 17045 17212 17377 17490 17558 17584 17689 17875 17886 17902 17924 17854 17948 18128 18265 18312 18457 18659 18764 18765 18793 18855 18965 18963 19046 19238 19405 19574 19711 19913 20027 20086 20249 20395 20415 20393 20561 20660 20578 20403 20419 20474 20504 21068 21074 21073 21069 21065 21062 21058 21052 21048 21044 21062 21126 21307 21414 21649 21683 21669 21668 21755 21664 21701 21758 21898 21907 21918 21839 21833 21824 21840 21960 22024 22003 22105 22028 22066 22073 22136 22126 22125 22006 21919 21963 22042 21957 21931 21960 21874 21925 21905 21941 22050 22167 22268 22302 22399 22312 22206 22175 22125 22074 22028 21892 21821 21798 21853 21919 22064 21989 21944 21951 22051
15365 15400 15434 15456 15546 15494 15336 15303 15225 15314 15396 15314 15350 15272 15277 15252 15093 15052 15113 15053 15100 15134 15173 15166 15082 14930 14815 14783 14723 14678 14769 14633 14591 14717 14890 15128 15234 15316 15446 15588 15807 15873 15969 16175 16288 16425 17005 16938 16918 16918 16918 16867 16784 16967 17019 17107 17104 17070 17105 17131 17152 17180 17266 17512 17621 17624 17607 17505 17417 17567 17596 17578 17506 17569 17553 17617 17625 17684 17776 17824 17870 17685 17562 17248 17054 16870 16753 16598 16474 16355 16232 16192 16160 15995 15854 15783 15638 15754 15862 15968 15998 16056 16100 16179 16264 16298 16300 16324 16319 16353 16457 16617 16763 16683 16629 16530 16529 16548 16483 16547 16558 16653 16839 16818 16714 16751 16715 16678 16534 16727 16794 16993 17121 17020 17010 17072 17197 17234 17191 17075 17024 16971 16927 16942 17020 17189 17338 17371 17453 17516 17686 17645 17706 17739 17778 17984 18135 18236 18307 18412 18608 18636 18764 18678 18713 18732 18769 18916 19014 19183 19388 19478 19701 19870 19952 20120 20286 20357 20233 20357 20507 20391 20385 20367 20440 20427 20468 21078 21074 21068 21063 21058 21056 21051 21048 21046 21055 21138 21284 21383 21635 21680 21770 21825 21812 21766 21773 21895 22005 21982 21848 21837 21886 21874 22014 22013 22069 22026 22102 22178 22212 22186 22319 22283 22243 22153 22103 22182 22125 22039 21994 22000 21961 21917 21958 22034 22121 22278 22418 22481 22521 22435 22365 22281 22143 22094 22049 22005 21798 21862 21991 22028 22069 22039 22083 22048 22046
15426 15365 15399 15426 15478 15259 15153 15098 15079 15147 15308 15269 15342 15270 15245 15200 15176 15115 15078 15037 15075 15069 15122 15036 15018 14963 14816 14804 14761 14754 14763 14765 14712 14869 15079 15282 15363 15453 15493 15616 15737 15801 15908 16089 16219 16394 17026 16981 16981 16981 16981 16907 16687 16895 17033 17094 17148 17176 17179 17170 17233 17254 17363 17547 17611 17647 17579 17441 17389 17493 17491 17435 17464 17491 17489 17577 17628 17674 17774 17797 17935 17672 17453 17245 17071 16954 16850 16703 16520 16345 16289 16216 16182 16098 15892 15705 15611 15732 15764 15770 15844 15872 15900 16014 16150 16172 16099 16121 16226 16432 16540 16690 16816 16657 16557 16516 16532 16473 16438 16461 16511 16633 16758 16693 16752 16727 16626 16532 16516 16595 16735 16943 17124 17064 17083 17167 17173 17204 17147 17063 16906 16871 16870 16890 16914 17046 17190 17215 17245 17281 17420 17436 17530 17618 17705 17845 18069 18189 18425 18505 18647 18651 18697 18625 18520 18582 18577 18683 18734 18916 19096 19225 19463 19662 19855 20023 20288 20304 20194 20226 20343 20350 20280 20272 20310 20376 20399 20378 21070 21062 21057 21053 21055 21058 21058 21061 21074 21094 21162 21385 21614 21729 21754 21813 21840 21848 21957 22045 22102 22041 21902 21946 21889 21993 22125 22152 22169 22129 22184 22221 22359 22391 22475 22512 22427 22379 22310 22358 22305 22115 22030 21994 21927 21976 22054 22144 22210 22370 22461 22594 22696 22586 22566 22374 22275 22152 22092 22029 21903 21978 22016 22157 22175 22151 22157 22167 22098
15284 15301 15309 15374 15326 15128 15021 14970 14982 15070 15167 15265 15294 15252 15279 15268 15195 15181 15079 15048 15011 15030 15088 14988 15014 14949 14869 14769 14712 14751 14867 14859 14744 14901 15045 15208 15332 15374 15448 15504 15655 15785 15884 15990 16221 16349 17032 17019 17019 17019 17019 16942 16835 16892 17022 17084 17076 17120 17149 17241 17349 17407 17440 17609 17640 17669 17587 17570 17526 17586 17532 17484 17531 17573 17588 17629 17640 17685 17813 17969 18095 17749 17467 17388 17216 17059 16976 16733 16540 16399 16308 16213 16170 16076 15900 15724 15569 15619 15739 15801 15789 15842 15895 15960 16161 16098 16004 16091 16243 16376 16540 16640 16685 16629 16500 16452 16536 16394 16420 16415 16359 16490 16618 16602 16657 16653 16579 16561 16506 16621 16689 16832 16986 17016 17064 17113 17059 17010 16975 16926 16927 16849 16864 16888 16950 16974 17082 17151 17128 17202 17366 17299 17387 17502 17617 17763 17930 18126 18291 18409 18512 18610 18659 18566 18501 18494 18474 18610 18618 18812 19001 19142 19345 19484 19723 19860 19981 20073 19996 20058 20136 20191 20215 20109 20124 20207 20210 20211 20225 21054 21051 21048 21052 21065 21078 21087 21104 21131 21172 21425 21520 21631 21705 21816 21842 21845 21987 22091 22118 22031 21928 21933 21864 22092 22167 22228 22181 22235 22292 22268 22395 22502 22554 22545 22569 22529 22420 22428 22277 22190 22176 22040 21954 22102 22200 22225 22231 22371 22459 22664 22798 22722 22688 22508 22448 22302 22312 22148 21966 22106 22147 22223 22301 22231 22147 22173 22173
15073 15108 15269 15312 15244 15132 14907 14841 14811 14951 15097 15132 15233 15258 15235 15229 15171 15125 15056 14976 14945 15036 15020 15041 14949 14906 14888 14848 14760 14783 14847 14865 14774 14985 15088 15180 15237 15267 15279 15422 15605 15742 15898 16004 16150 16334 17035 17035 17035 17035 17035 16899 16882 16920 16973 17002 17083 17109 17153 17320 17394 17349 17430 17577 17670 17684 17610 17593 17684 17641 17519 17484 17527 17515 17588 17552 17620 17654 17813 18073 18210 17951 17605 17453 17393 17197 16985 16798 16520 16354 16235 16173 16104 16011 15951 15798 15617 15619 15636 15750 15800 15824 15797 15928 16099 16066 16009 16068 16248 16339 16530 16590 16643 16500 16412 16469 16421 16365 16303 16246 16272 16426 16579 16595 16691 16697 16604 16547 16587 16654 16686 16766 16885 16967 16943 17017 16984 16945 16913 16835 16863 16848 16916 16970 16914 16983 17089 17057 17106 17087 17192 17160 17154 17356 17530 17674 17839 17955 18047 18200 18344 18460 18524 18400 18366 18402 18459 18570 18598 18789 18866 19063 19317 19439 19678 19677 19767 19770 19830 19888 19925 19929 20055 20053 19932 20057 20063 20080 20127 20246 21049 21044 21052 21069 21097 21103 21123 21152 21194 21383 21435 21540 21668 21764 21745 21959 22075 22128 22262 22178 21983 21939 21923 22097 22281 22245 22309 22283 22275 22325 22417 22500 22509 22607 22693 22589 22573 22435 22314 22262 22312 22226 22098 22181 22253 22248 22326 22429 22579 22662 22789 22727 22775 22642 22574 22506 22447 22252 22060 22133 22203 22288 22323 22253 22179 22259 22357
15013 15104 15120 15118 15105 14983 14782 14731 14599 14774 14937 14961 15034 15137 15179 15152 15168 15204 15121 15009 14932 14916 14901 14889 14950 14928 14843 14809 14702 14702 14803 14764 14671 14812 14943 15033 15132 15121 15210 15320 15425 15667 15747 15963 16120 16294 17054 17054 17054 17054 17054 16857 16881 16889 16951 16907 16987 17020 17156 17241 17448 17461 17465 17607 17704 17708 17626 17622 17664 17598 17624 17590 17651 17631 17682 17615 17634 17805 17986 18171 18158 17922 17780 17579 17433 17270 17091 16918 16682 16407 16273 16160 16128 16045 15915 15756 15625 15595 15659 15844 15914 15832 15749 15898 16037 16047 15982 16083 16118 16221 16361 16448 16497 16446 16235 16251 16240 16238 16190 16211 16220 16299 16441 16498 16579 16469 16449 16432 16481 16583 16769 16795 16842 16921 16841 16863 16934 16836 16913 16788 16810 16826 16914 16905 16854 16770 16864 16929 16942 17010 16999 17095 17114 17298 17500 17687 17859 17991 18029 18193 18284 18411 18450 18470 18428 18438 18435 18399 18403 18568 18774 18897 19153 19298 19483 19541 19636 19717 19717 19832 19800 19748 19843 19899 19791 19842 19922 20056 20166 20229 20335 21040 21056 21078 21130 21149 21163 21196 21238 21303 21277 21396 21587 21706 21767 21895 22048 22203 22270 22219 22126 21993 21939 22086 22313 22206 22237 22315 22380 22508 22507 22536 22652 22750 22836 22775 22697 22511 22376 22338 22385 22251 22263 22275 22365 22335 22444 22528 22669 22733 22855 22878 22929 22880 22727 22598 22576 22481 22231 22257 22370 22358 22471 22397 22240 22369 22334
