9400 9449 9597 9482 9510 9681 9899 9967 10181 10360 10519 10730 11023 11069 11294 11308 11492 11599 11728 11706 11813 11869 11933 12002 11994 12018 12134 12254 12268 12427 12619 12776 12834 12952 13016 13097 13186 13149 13155 13297 13319 13319 13404 13512 13682 13628 13601 13489 13466 13354 13408 13500 13625 13754 13880 13860 13843 13813 13874 13841 13902 13878 13925 13998 14026 14067 14012 14163 14208 14318 14359 14377 14353 14423 14326 14322 14371 14297 14325 14325 14325 14325 14396 14880 14952 15009 15064 15242 15269 15423 15486 15517 15617 15638 15644 15707 15762 15798 15925 15971 16020 15885 15767 15667 15584 15497 15494 15510 15397 15519 15686 15758 15978 15893 15728 15593 15504 15441 15253 15205 15240 15190 15089 14947 14858 14825 14791 14692 14541 14355 14243 14176 14095 14148 14108 14078 13969 14011 14038 14048 14018 14062 14152 14167 14259 14415 14502 14622 14688 14775 14902 14921 15048 15117 15264 15333 15463 15549 15572 15665 15690 15632 15696 15708 15784 15749 15716 15762 15666 15679 15605 15701 15775 15788 15775 15734 15671 15749 15859 15919 15909 15969 16139 16204 16158 16217 16369 16353 16353 16353 16353 16353 16778 16879 16798 16839 16912 16926 16839 16762 16649 16681 16659 16800 16852 16821 16896 16812 16745 16715 16826 16866 16989 16878 16823 16792 16888 17054 17246 17260 17333 17428 17585 17598 17693 17870 17900 17907 18096 18040 18031 17904 17957 18235 18403 18463 18621 18681 18742 18782 18870 19003 19023 19123 19186 19305 19422 19389 19538 19399 19262 19339 19258 19372 19507 19515 19471
9330 9344 9470 9452 9532 9708 9833 9976 10083 10309 10436 10682 10906 11020 11182 11287 11406 11485 11609 11684 11742 11744 11836 11947 11966 12010 11951 12020 12102 12340 12543 12648 12735 12803 12942 13027 13092 13107 13116 13205 13231 13292 13359 13401 13489 13443 13446 13434 13301 13285 13370 13470 13658 13841 13898 13887 13956 13995 13939 13955 14055 14098 14020 14058 14164 14065 14082 14203 14199 14304 14358 14388 14337 14332 14334 14332 14222 14307 14370 14370 14370 14370 14433 15014 15125 15140 15174 15250 15337 15489 15613 15601 15664 15705 15642 15661 15722 15729 15760 15832 15854 15842 15742 15544 15448 15370 15306 15353 15371 15428 15614 15837 15989 15897 15748 15563 15485 15385 15186 15104 15055 14954 14957 14759 14680 14688 14736 14660 14543 14336 14247 14167 14148 14200 14175 14103 13959 13945 14027 14083 14043 14149 14208 14193 14189 14314 14521 14647 14706 14754 14769 14794 14933 15041 15187 15336 15484 15563 15521 15570 15547 15534 15485 15598 15612 15595 15622 15621 15625 15656 15631 15693 15842 15866 15849 15841 15739 15819 15976 16026 15978 16040 16098 16163 16155 16206 16281 16326 16326 16326 16326 16326 16909 16900 16853 16820 16898 16817 16745 16700 16666 16639 16738 16820 16976 16897 16896 16792 16727 16756 16892 17024 17172 17135 16982 17061 17035 17174 17388 17448 17502 17634 17684 17828 17868 18014 18103 18081 18101 18072 18153 18049 18057 18278 18497 18650 18761 18792 18845 18924 19005 19130 19214 19263 19298 19463 19530 19541 19639 19562 19431 19402 19368 19481 19567 19555 19554
9273 9374 9391 9487 9622 9694 9807 10031 10075 10222 10326 10558 10848 10922 11054 11269 11430 11410 11591 11608 11788 11766 11913 11909 12029 11967 11991 11971 12053 12303 12389 12547 12610 12764 12890 12929 13047 13036 13054 13156 13254 13381 13408 13333 13390 13324 13324 13329 13298 13359 13393 13589 13725 13768 13872 14006 14071 14081 14058 14087 14231 14163 14144 14192 14279 14231 14280 14221 14230 14359 14382 14409 14348 14325 14426 14412 14305 14331 14417 14417 14417 14417 14452 15063 15175 15255 15192 15313 15439 15454 15470 15483 15629 15550 15617 15667 15677 15565 15560 15689 15665 15710 15560 15502 15392 15366 15249 15383 15417 15539 15579 15719 15953 15836 15660 15539 15346 15227 15075 14976 14878 14851 14773 14670 14589 14633 14742 14575 14575 14391 14291 14198 14110 14142 14078 14079 14019 14046 14010 13998 14074 14116 14205 14134 14072 14301 14453 14443 14577 14635 14733 14802 14867 14946 15106 15266 15456 15401 15401 15359 15415 15429 15311 15484 15591 15488 15556 15583 15519 15608 15643 15710 15774 15781 15866 15783 15778 15938 16026 15982 16000 16100 16143 16106 16142 16228 16366 16302 16302 16302 16302 16302 16747 16823 16925 16843 16951 16892 16758 16714 16792 16834 16736 16832 16972 16985 16854 16762 16767 16872 17018 17099 17234 17297 17271 17310 17242 17402 17416 17495 17646 17669 17829 17960 17996 18083 18185 18272 18274 18287 18348 18329 18274 18379 18533 18737 18857 18978 18991 18963 18990 19114 19252 19332 19336 19443 19538 19643 19703 19732 19669 19566 19614 19602 19695 19678 19609
9223 9264 9430 9608 9671 9814 9902 10042 10114 10266 10343 10564 10806 10931 10972 11203 11339 11367 11506 11587 11729 11855 11890 11927 12019 12081 12059 11972 12004 12218 12315 12456 12488 12664 12788 12899 12964 13061 13086 13184 13201 13320 13375 13295 13311 13273 13324 13335 13266 13389 13540 13602 13746 13796 13974 13994 14089 14052 14068 14194 14341 14332 14201 14342 14397 14418 14446 14420 14318 14345 14377 14309 14370 14380 14447 14370 14406 14345 14473 14473 14473 14473 14491 15100 15351 15318 15198 15344 15491 15515 15451 15460 15515 15463 15492 15528 15529 15448 15480 15584 15582 15533 15472 15434 15388 15304 15216 15297 15392 15495 15586 15752 15813 15716 15627 15471 15193 15071 15025 14816 14719 14640 14605 14523 14465 14513 14635 14554 14570 14372 14279 14162 14029 13935 13969 13960 14029 14001 14101 14077 14137 14067 14087 14103 14057 14221 14325 14353 14423 14580 14620 14727 14799 14949 15127 15259 15369 15294 15224 15229 15363 15369 15257 15316 15501 15396 15406 15433 15445 15585 15633 15652 15719 15771 15806 15797 15848 15923 16063 16072 16043 16025 16083 16048 16043 16194 16233 16279 16279 16279 16279 16286 16630 16731 16903 16881 16900 16921 16847 16812 16892 16931 16849 16902 17060 16971 16908 16852 16889 17056 17230 17333 17395 17419 17443 17443 17495 17561 17526 17549 17672 17772 17910 18071 18123 18217 18361 18354 18434 18430 18525 18517 18407 18518 18638 18815 19053 19058 19037 19085 19075 19186 19340 19375 19411 19484 19535 19748 19852 19914 19861 19774 19784 19766 19731 19665 19588
9192 9308 9502 9632 9767 9846 9977 10091 10149 10239 10378 10608 10707 10779 10871 11146 11284 11316 11464 11567 11691 11738 11922 11855 11902 11946 12021 11935 11958 11997 12092 12311 12325 12627 12743 12816 12895 13071 13111 13146 13123 13273 13319 13266 13320 13245 13254 13237 13173 13338 13491 13574 13752 13873 14044 14060 14121 14149 14197 14306 14345 14294 14269 14436 14513 14488 14499 14534 14446 14404 14336 14294 14440 14378 14389 14391 14464 14418 14533 14533 14533 14533 14533 15268 15357 15297 15278 15373 15451 15462 15407 15354 15400 15422 15482 15519 15554 15515 15484 15508 15364 15331 15311 15281 15262 15247 15210 15273 15294 15362 15497 15587 15727 15591 15409 15346 15147 14995 14954 14774 14702 14570 14547 14541 14446 14411 14517 14532 14448 14390 14220 14234 14127 13994 13990 14067 14067 14110 14130 14083 14094 13982 13995 14033 13958 14089 14114 14122 14247 14443 14583 14685 14850 14966 14968 15065 15213 15176 15113 15236 15273 15285 15159 15278 15378 15329 15372 15386 15333 15435 15590 15654 15660 15758 15800 15851 15829 15880 16055 16076 16086 16118 16028 16021 15908 16110 16226 16259 16259 16259 16259 16278 16676 16788 16901 16877 16981 17021 16955 17044 17050 17018 17078 17046 17029 16997 16980 16972 16984 17124 17291 17307 17466 17501 17557 17616 17722 17737 17630 17736 17860 17942 17995 18074 18238 18317 18418 18477 18459 18508 18607 18566 18439 18628 18731 18849 19104 19060 19132 19160 19181 19272 19469 19564 19601 19656 19670 19820 19817 19872 19917 19903 19913 19848 19708 19608 19586
9257 9325 9462 9656 9801 9870 10025 10105 10312 10373 10489 10578 10626 10692 10860 11154 11330 11383 11437 11578 11701 11723 11868 11898 11865 11941 11923 11888 11822 11898 11917 12136 12255 12526 12676 12757 12888 13056 13117 13087 13172 13271 13301 13342 13380 13344 13268 13243 13162 13236 13412 13545 13672 13827 14038 14115 14185 14343 14400 14441 14429 14389 14352 14477 14506 14623 14665 14630 14579 14483 14411 14344 14388 14400 14440 14380 14403 14478 14606 14606 14606 14606 14606 15353 15362 15284 15291 15392 15432 15380 15306 15345 15363 15477 15574 15580 15552 15569 15465 15362 15219 15198 15174 15250 15258 15167 15166 15194 15175 15275 15333 15419 15552 15443 15247 15199 15028 14997 14862 14775 14604 14587 14457 14475 14387 14421 14423 14409 14425 14324 14264 14181 14104 14093 14032 14175 14209 14075 14035 13977 14015 13982 13952 13898 13810 13901 13949 14026 14182 14304 14463 14641 14825 14872 14858 14986 15017 15004 15052 15169 15206 15182 15160 15265 15370 15349 15336 15292 15144 15371 15546 15667 15728 15758 15889 15855 15910 15971 16110 16148 16132 16106 16024 15991 15846 16222 16224 16238 16238 16238 16244 16261 16606 16751 16773 16994 17110 17119 17169 17183 17206 17142 17181 17061 16904 16943 17025 16946 16965 17133 17269 17364 17438 17525 17726 17743 17864 17897 17862 17877 17984 18065 18117 18168 18259 18327 18427 18467 18592 18701 18690 18593 18580 18661 18860 18924 19094 19073 19145 19108 19187 19378 19556 19637 19733 19819 19844 19907 19850 19851 19924 19967 19946 19806 19787 19641 19588
9311 9473 9485 9682 9786 9936 9986 10165 10255 10401 10468 10529 10636 10794 10952 11139 11310 11370 11348 11473 11577 11614 11664 11629 11644 11662 11766 11838 11820 11806 11805 12062 12284 12342 12454 12642 12769 12767 12863 12973 13030 13044 13153 13214 13145 13194 13144 13106 13140 13268 13341 13484 13561 13703 13898 14015 14081 14257 14242 14345 14444 14398 14442 14425 14534 14653 14787 14704 14594 14591 14547 14479 14622 14562 14565 14430 14442 14649 14682 14682 14682 14682 14682 15394 15511 15356 15350 15509 15516 15506 15386 15395 15390 15451 15505 15567 15626 15474 15378 15384 15359 15284 15201 15159 15224 15190 15112 15222 15276 15248 15357 15488 15566 15346 15239 15148 15005 14934 14727 14688 14539 14517 14560 14500 14395 14369 14286 14249 14256 14273 14276 14261 14103 14043 14031 14149 14152 14046 14030 13937 13929 13936 13844 13718 13710 13785 13899 14000 14132 14195 14454 14612 14849 14908 14791 14859 14937 15036 15120 15142 15153 15067 15002 15085 15211 15258 15396 15247 15196 15383 15526 15584 15616 15700 15742 15751 15769 15898 16017 16094 15999 16004 15996 16046 16236 16229 16228 16233 16233 16232 16237 16253 16668 16809 16816 17021 17168 17087 17156 17147 17161 17135 17092 17003 17019 16956 16979 16951 17082 17140 17252 17430 17533 17611 17694 17778 17934 17896 17949 17947 17869 18075 18136 18206 18183 18401 18515 18509 18633 18729 18735 18667 18687 18765 18921 18988 19129 19197 19209 19105 19127 19368 19453 19596 19677 19823 19839 19895 19833 19794 19814 19944 19893 19862 19811 19699 19644
9465 9519 9497 9655 9793 9896 10061 10126 10242 10344 10360 10508 10701 10837 11016 11176 11274 11315 11336 11348 11390 11380 11458 11438 11454 11554 11649 11665 11751 11777 11799 12056 12205 12223 12350 12505 12550 12578 12655 12798 13015 12955 13003 12972 12981 13080 13109 13112 13039 13155 13347 13389 13533 13623 13768 13916 14075 14122 14110 14241 14380 14372 14434 14496 14634 14682 14819 14739 14645 14684 14638 14653 14751 14768 14680 14561 14476 14695 14771 14771 14771 14771 14771 15431 15639 15528 15534 15610 15632 15627 15535 15428 15314 15393 15523 15595 15665 15512 15407 15405 15442 15298 15183 15139 15224 15236 15171 15193 15255 15253 15304 15442 15562 15342 15157 15046 14957 14852 14695 14687 14563 14529 14556 14480 14396 14267 14240 14184 14140 14248 14296 14246 14115 14094 13953 14051 14047 14061 14023 13910 13799 13767 13673 13670 13679 13709 13838 13976 14023 14137 14364 14633 14912 14932 14831 14934 14968 14987 15103 15113 15226 15059 14969 14966 15059 15149 15336 15250 15242 15380 15422 15444 15550 15567 15581 15576 15660 15828 15965 15998 15920 15974 15939 16249 16243 16236 16232 16232 16228 16224 16226 16653 16845 16886 16924 16992 17121 17091 17028 17033 17026 16991 16955 16994 17124 17134 17051 17035 17106 17186 17353 17435 17507 17645 17782 17842 17888 17916 18022 17979 17868 17991 18136 18095 18158 18328 18495 18613 18674 18704 18814 18897 18858 18995 19011 19022 19069 19184 19200 19163 19099 19302 19385 19539 19617 19757 19814 19791 19780 19801 19812 19876 19885 19860 19813 19720 19636
9401 9494 9542 9699 9804 9886 9949 10034 10141 10305 10461 10600 10681 10814 11001 11126 11133 11223 11327 11377 11366 11383 11379 11346 11278 11440 11551 11590 11701 11712 11734 11907 12052 12171 12233 12361 12340 12458 12475 12649 12827 12768 12785 12725 12797 12891 12873 12968 12923 13106 13215 13342 13504 13619 13733 13858 14010 14026 14125 14183 14308 14424 14408 14510 14616 14677 14840 14843 14737 14722 14699 14686 14774 14701 14667 14681 14615 14746 14864 14864 14864 14864 14864 15524 15640 15604 15645 15639 15657 15612 15532 15469 15379 15426 15572 15606 15746 15594 15435 15384 15401 15342 15178 15182 15300 15330 15269 15237 15247 15320 15383 15489 15579 15418 15159 15083 14942 14786 14700 14672 14639 14568 14623 14475 14466 14402 14334 14258 14053 14202 14238 14247 14088 14063 13947 13994 13947 13918 13952 13853 13806 13804 13691 13710 13678 13865 13943 13978 14006 14160 14459 14629 14884 14815 14728 14810 14831 14944 15104 15092 15140 14994 14952 14943 15052 15087 15312 15263 15299 15436 15439 15486 15546 15502 15482 15466 15550 15725 15868 15873 15961 16060 16250 16250 16245 16239 16236 16232 16227 16222 16222 16813 16960 16971 17010 16996 16987 17002 17039 17017 16913 16886 16983 17036 17213 17110 17097 17101 17049 17148 17302 17514 17622 17713 17772 17885 17923 18033 18099 17986 17894 17969 18038 18115 18176 18308 18566 18627 18783 18773 18880 18913 18865 18947 19071 19072 18983 19059 19187 19116 19113 19190 19362 19420 19555 19631 19717 19846 19862 19880 19825 19847 19808 19840 19738 19734 19690
9444 9624 9692 9738 9753 9757 9850 9986 10164 10286 10504 10682 10742 10829 10954 11071 11092 11161 11309 11293 11324 11336 11265 11166 11172 11217 11327 11445 11525 11557 11680 11900 11994 11976 12065 12141 12115 12198 12395 12529 12667 12669 12621 12600 12571 12605 12713 12727 12706 12945 13102 13287 13407 13552 13669 13863 13947 14058 14057 14136 14269 14379 14402 14551 14695 14749 14835 14859 14787 14771 14778 14824 14876 14828 14737 14739 14750 14770 14956 14956 14956 14956 14956 15573 15714 15695 15786 15759 15753 15662 15568 15536 15411 15423 15552 15716 15764 15636 15511 15487 15476 15445 15294 15349 15346 15412 15372 15311 15258 15261 15339 15420 15526 15355 15141 15006 14915 14842 14746 14793 14765 14661 14613 14556 14522 14435 14365 14224 14042 14143 14185 14176 14153 14105 14056 13986 13938 13827 13769 13769 13772 13709 13734 13780 13776 13933 14025 14035 14117 14261 14447 14668 14845 14710 14690 14740 14737 14907 14987 15051 15105 15071 14928 14950 14996 15084 15220 15242 15335 15400 15483 15477 15521 15482 15429 15476 15517 15617 15791 15876 15903 16256 16253 16252 16248 16243 16239 16236 16229 16222 16824 16944 16985 16952 16990 17029 16954 16951 17021 16953 16841 16853 16949 17019 17195 17169 17063 16993 17010 17161 17365 17477 17702 17729 17785 17879 17966 18027 18064 18011 17965 18021 18059 18099 18219 18391 18570 18713 18928 18854 18904 18954 18971 19017 19034 19019 18978 19064 19049 19075 19115 19185 19281 19409 19524 19663 19738 19845 19892 19859 19918 19820 19803 19736 19723 19757 19847
9506 9622 9756 9788 9867 9784 9798 9995 10080 10184 10289 10476 10581 10719 10759 10799 10837 10942 11051 11152 11150 11154 11102 11141 11104 11166 11179 11300 11328 11516 11613 11755 11913 11976 11984 11987 12066 12133 12186 12332 12418 12381 12434 12402 12468 12501 12592 12570 12640 12803 13022 13143 13300 13533 13693 13807 13886 13984 14013 14183 14217 14446 14490 14701 14891 14834 14862 14860 14874 14888 14792 14826 14954 14843 14864 14893 14869 14953 15046 15046 15046 15046 15046 15596 15865 15766 15744 15808 15921 15791 15674 15608 15442 15488 15579 15665 15753 15692 15604 15658 15626 15531 15472 15528 15504 15544 15448 15421 15487 15465 15388 15442 15531 15394 15246 15103 14899 14808 14690 14724 14663 14548 14526 14465 14465 14372 14207 14146 13994 13970 14023 14010 13976 14010 14052 13993 13911 13781 13758 13827 13774 13756 13854 13840 13885 14002 14016 14012 14080 14250 14335 14528 14815 14785 14652 14760 14759 14937 15048 15012 14989 14965 14933 14980 15053 15079 15169 15225 15252 15293 15386 15340 15354 15392 15410 15447 15549 15695 15831 15907 16264 16261 16257 16255 16252 16250 16245 16243 16236 16845 16846 17006 17049 17072 17065 16942 16913 16939 16907 16867 16785 16886 17012 17037 17118 17115 17061 17044 17084 17196 17389 17469 17651 17764 17905 17922 18059 18057 18066 18114 18074 18041 18110 18211 18301 18470 18609 18762 18896 18827 18916 18850 18949 19012 18952 18971 19009 19115 19122 19175 19188 19154 19277 19337 19482 19630 19754 19765 19764 19862 19827 19752 19804 19805 19796 19865 19998
9626 9686 9789 9867 9910 9847 9780 9887 9938 9981 10042 10185 10443 10552 10644 10664 10682 10743 10796 10905 11043 10963 10966 11099 11120 11050 11088 11233 11256 11467 11655 11738 11817 11811 11927 11991 11997 12073 12032 12196 12273 12146 12123 12247 12316 12468 12540 12548 12548 12681 12871 12959 13162 13465 13653 13778 13793 13923 14052 14196 14293 14472 14597 14753 14982 15003 14979 15029 14965 14953 14852 14853 14931 14980 14962 15052 15044 15277 15122 15122 15122 15122 15100 15746 15911 15900 15779 15930 15988 15788 15700 15594 15550 15622 15680 15808 15832 15767 15630 15687 15696 15730 15665 15591 15597 15646 15631 15631 15609 15550 15546 15551 15600 15409 15274 15113 14833 14790 14674 14602 14630 14535 14446 14414 14351 14199 14087 14031 13882 13939 13926 13885 13898 13909 13947 13941 13867 13769 13773 13778 13785 13907 13970 14073 14076 14032 14024 13998 13987 14118 14235 14412 14701 14711 14654 14800 14902 14923 15014 14975 14906 14895 14983 15043 15063 15147 15115 15201 15203 15175 15219 15302 15293 15441 15465 15530 15641 15756 15883 15968 16263 16261 16258 16256 16256 16254 16250 16249 16804 16920 16932 16999 17112 17072 17106 16969 16912 16819 16806 16738 16768 16863 17017 17053 17048 17056 17122 17191 17229 17344 17378 17484 17563 17735 17932 18046 18096 18041 17966 18124 18190 18197 18212 18227 18307 18390 18536 18721 18857 18888 18837 18819 18834 18896 18924 18946 19089 19044 19089 19086 19198 19150 19205 19343 19437 19599 19717 19754 19672 19797 19816 19789 19861 19872 19988 20039 20124
9688 9729 9886 9921 9938 9844 9766 9882 9876 9938 9859 10101 10307 10309 10356 10428 10569 10633 10763 10868 10925 10963 10888 10964 11071 11049 11060 11085 11126 11325 11517 11583 11776 11786 11819 11853 11836 11812 11790 11953 12043 11985 11929 11952 12048 12277 12355 12403 12491 12615 12846 12955 13153 13445 13647 13739 13873 13924 14064 14275 14290 14515 14613 14856 15069 15046 15135 15145 15095 15024 14967 14941 15055 15058 15040 15082 15110 15292 15194 15194 15194 15194 15155 15799 15834 15841 15839 15886 15983 15831 15788 15740 15694 15779 15759 15850 15781 15786 15649 15728 15690 15773 15777 15813 15740 15734 15706 15650 15634 15641 15517 15552 15663 15405 15247 15026 14868 14818 14627 14650 14585 14417 14329 14211 14149 14103 14010 13879 13723 13754 13891 13771 13811 13825 13891 13868 13919 13856 13815 13851 13857 13831 13905 14022 14121 14172 14137 14039 13945 14092 14171 14343 14549 14663 14684 14828 14888 14906 15057 15060 14984 14949 14960 14951 14915 15017 15050 15110 15183 15268 15301 15312 15257 15306 15408 15425 15596 15779 15973 16122 16260 16260 16258 16258 16258 16256 16250 16788 16896 16948 17065 17099 17227 17209 17130 17079 16894 16886 16896 16890 16909 16970 16956 17098 17142 17078 17132 17222 17317 17317 17276 17457 17504 17747 17930 18018 18107 18042 18039 18073 18171 18303 18325 18396 18363 18523 18680 18749 18852 18923 18862 18846 18837 18999 19026 19091 19110 19127 19193 19201 19317 19227 19272 19332 19415 19523 19715 19608 19609 19753 19846 19880 20032 20124 20219 20238 20275
9817 9840 9967 9956 9917 9902 9853 9853 9752 9788 9788 9937 10067 10159 10184 10365 10493 10591 10663 10748 10800 10844 10845 10858 10917 10895 10925 11020 11110 11246 11458 11507 11624 11733 11837 11791 11800 11735 11645 11643 11688 11704 11717 11767 11897 12000 12180 12317 12340 12518 12746 12850 13075 13312 13576 13751 13849 14008 14198 14314 14335 14473 14728 14838 15058 15098 15246 15202 15211 15207 15104 15107 15197 15097 15104 15177 15186 15318 15248 15248 15248 15248 15179 15856 15870 15900 15815 15867 15973 15959 15958 15786 15725 15863 15895 15852 15858 15775 15774 15796 15771 15890 15922 15953 15906 15847 15726 15677 15745 15638 15597 15673 15651 15457 15208 15071 14871 14805 14679 14613 14587 14456 14254 14094 14020 13935 13833 13649 13562 13702 13753 13742 13721 13777 13743 13875 13971 13912 13866 13851 13870 13870 13912 13984 14159 14202 14161 14140 14029 14115 14215 14264 14397 14525 14723 14808 14921 14993 15047 15031 14949 14896 14862 14886 14876 14958 15008 15045 15198 15254 15323 15273 15235 15279 15330 15396 15576 15806 16075 16210 16259 16259 16259 16259 16259 16260 16743 16832 16945 17021 17221 17277 17419 17382 17239 17081 16943 16917 16951 16939 16947 16995 16963 17026 17126 17216 17235 17294 17291 17330 17293 17366 17540 17620 17806 17945 18007 18021 18026 18100 18253 18371 18383 18429 18529 18634 18727 18847 18965 18949 18935 18890 18941 19071 19143 19153 19131 19167 19252 19271 19349 19280 19302 19382 19463 19483 19595 19545 19556 19726 19903 19945 20085 20204 20385 20443 20525
9806 9862 9941 10005 10083 9984 9970 9933 9878 9891 9980 10057 10076 10176 10376 10440 10591 10619 10766 10762 10871 10970 10982 10960 11085 11101 11096 11165 11294 11412 11698 11679 11821 11878 11934 11925 11960 11852 11777 11861 11933 11842 11846 11864 11895 12039 12173 12289 12317 12540 12760 12936 13026 13239 13580 13706 13861 13978 14133 14232 14383 14531 14772 14974 15103 15146 15334 15307 15286 15190 15130 15224 15225 15248 15204 15306 15249 15328 15297 15297 15297 15297 15220 15871 15795 15868 15878 15787 15886 15906 15839 15852 15752 15894 15847 15934 15924 15826 15727 15713 15777 15849 15855 15845 15822 15680 15603 15583 15647 15546 15534 15552 15506 15309 15073 14962 14809 14734 14574 14619 14585 14487 14335 14097 13971 14014 13880 13759 13776 13829 13908 13839 13863 13849 13905 13955 13941 13870 13928 13966 13927 13946 13949 14067 14081 14150 14256 14155 14133 14245 14362 14320 14373 14587 14670 14731 14786 14871 14955 14875 14920 14891 14887 14911 15011 15092 15058 15178 15248 15267 15347 15383 15374 15412 15476 15443 15559 15733 15991 16172 16256 16257 16257 16257 16257 16267 16842 16879 16948 17100 17244 17267 17361 17299 17251 17100 17014 16987 16988 16995 16894 16963 16995 17055 17008 17080 17105 17237 17218 17262 17320 17373 17460 17555 17761 17836 17954 18068 18145 18140 18189 18314 18393 18436 18545 18642 18705 18767 18973 18876 18921 18865 18818 18874 19012 18990 19078 19010 19071 19128 19186 19173 19243 19349 19490 19487 19594 19529 19570 19681 19746 19820 19977 20081 20197 20248 20347
9906 9883 9957 10057 10130 10122 10118 10080 10076 10095 10184 10234 10165 10325 10460 10522 10676 10763 10775 10890 11006 11093 11079 11108 11245 11306 11387 11499 11542 11620 11825 11892 11947 12034 12103 12143 12188 12138 12019 12042 12076 12004 12053 12037 11945 12050 12175 12246 12322 12496 12708 12908 13060 13255 13554 13736 13800 13906 14100 14308 14454 14675 14891 15037 15171 15203 15320 15318 15264 15337 15285 15290 15289 15368 15344 15444 15433 15343 15330 15330 15330 15330 15239 15820 15714 15755 15818 15738 15748 15735 15712 15786 15833 15877 15870 15909 15884 15852 15760 15708 15665 15644 15749 15628 15615 15575 15440 15448 15516 15438 15470 15388 15337 15225 14987 14905 14736 14677 14554 14547 14493 14423 14385 14223 14038 14021 13959 13966 13893 13970 13971 14006 13928 13981 13990 14042 13979 13948 13973 13948 13986 14017 13991 14074 14084 14135 14234 14249 14256 14314 14425 14443 14409 14590 14729 14755 14749 14837 14893 14824 14843 14969 14988 15041 15082 15115 15172 15265 15313 15369 15455 15508 15531 15507 15531 15507 15555 15794 15939 15984 16253 16253 16253 16253 16253 16769 16838 16906 16943 17069 17242 17182 17222 17249 17187 17125 16976 16990 16973 16916 16945 16970 17011 17047 17008 17044 16978 17165 17253 17364 17350 17453 17452 17624 17737 17832 18009 18067 18156 18166 18152 18280 18366 18475 18587 18643 18638 18706 18891 18882 18849 18720 18688 18695 18772 18897 18977 18970 19016 19038 19091 19183 19205 19310 19417 19488 19645 19629 19626 19632 19661 19779 19857 19941 20103 20239 20289
10110 10048 10165 10209 10247 10226 10207 10227 10192 10238 10306 10326 10318 10442 10668 10751 10813 10884 10933 10921 11086 11142 11201 11266 11289 11424 11500 11665 11722 11771 11969 11950 11995 12141 12222 12261 12308 12233 12171 12186 12149 12095 12157 12112 12153 12249 12313 12365 12377 12560 12689 12803 13041 13203 13467 13668 13903 13920 14079 14182 14384 14649 14891 15025 15214 15321 15325 15322 15296 15330 15370 15264 15280 15407 15391 15495 15377 15357 15357 15357 15357 15354 15898 15823 15750 15630 15651 15570 15553 15653 15564 15684 15770 15833 15944 15960 15876 15851 15764 15659 15610 15628 15584 15509 15473 15501 15433 15380 15381 15357 15415 15377 15240 15042 14943 14862 14730 14593 14553 14481 14476 14355 14337 14270 14158 14142 14069 14025 13980 13974 14110 14042 13965 13984 14021 13966 13904 13914 13938 13971 14014 14084 14112 14094 14173 14292 14281 14313 14333 14440 14511 14459 14435 14603 14680 14718 14668 14733 14816 14707 14771 14832 14941 15046 15174 15143 15137 15277 15355 15481 15515 15486 15548 15563 15621 15649 15609 15696 15828 15870 16251 16251 16251 16251 16251 16248 16806 16811 16916 17058 17185 17217 17220 17173 17164 17018 16943 16995 16939 16894 16826 16873 16985 17019 16911 16955 16970 17142 17215 17316 17315 17441 17530 17735 17830 17975 18173 18153 18221 18203 18259 18279 18366 18395 18529 18564 18621 18668 18833 18727 18656 18648 18579 18580 18695 18779 18738 18749 18821 18886 18824 19015 19048 19250 19309 19418 19552 19647 19629 19672 19733 19729 19841 19874 20035 20052 19991
10233 10252 10258 10324 10451 10379 10324 10304 10217 10297 10314 10360 10383 10565 10756 10938 11008 10933 10986 11000 11067 11209 11297 11388 11437 11619 11680 11777 11894 11988 12075 12079 12063 12212 12274 12356 12326 12309 12315 12226 12253 12305 12288 12248 12239 12280 12384 12452 12415 12598 12768 12803 12943 13128 13332 13634 13926 13984 14044 14190 14360 14621 14808 15112 15350 15425 15423 15409 15406 15389 15476 15363 15334 15497 15561 15592 15371 15366 15366 15366 15366 15364 15849 15754 15747 15600 15576 15579 15480 15514 15526 15717 15814 15862 15964 15865 15862 15809 15645 15626 15618 15586 15494 15473 15440 15376 15413 15406 15284 15316 15261 15251 15173 15012 14880 14886 14839 14657 14563 14461 14472 14415 14401 14385 14280 14227 14300 14188 14098 14087 14203 14152 14073 14035 13984 14011 13953 14037 14016 13983 14033 14027 14119 14187 14248 14406 14453 14446 14407 14549 14593 14591 14588 14569 14593 14639 14642 14685 14692 14655 14718 14899 15005 15084 15166 15210 15217 15382 15481 15531 15509 15561 15678 15671 15730 15701 15555 15643 15755 15807 16249 16246 16246 16246 16246 16240 16800 16744 16799 16948 17140 17135 17248 17116 17015 17004 16991 16874 16822 16842 16736 16760 16873 16894 16845 16827 16917 17012 17103 17143 17192 17297 17511 17720 17886 18137 18267 18307 18270 18336 18286 18396 18393 18407 18486 18494 18631 18670 18698 18596 18460 18430 18362 18508 18597 18637 18607 18682 18742 18747 18643 18804 18959 19126 19270 19424 19548 19682 19692 19708 19763 19780 19748 19830 19850 19875 19822
10281 10315 10358 10431 10552 10454 10406 10438 10357 10416 10562 10513 10525 10672 10853 11003 11068 11072 11191 11217 11123 11182 11242 11406 11564 11740 11790 11916 11909 12039 12111 12097 12170 12274 12284 12374 12411 12489 12434 12446 12372 12324 12310 12361 12297 12262 12401 12365 12375 12549 12816 12954 13002 13132 13422 13744 13908 14065 14042 14181 14364 14566 14869 15077 15358 15376 15347 15390 15394 15384 15404 15466 15469 15533 15640 15648 15362 15368 15368 15368 15368 15377 15727 15741 15758 15532 15451 15399 15349 15480 15527 15675 15883 15829 15947 15845 15878 15807 15687 15713 15703 15667 15550 15470 15451 15345 15282 15240 15290 15270 15251 15192 15118 14949 14915 14884 14867 14654 14626 14542 14564 14518 14525 14444 14445 14360 14323 14248 14170 14125 14241 14180 14107 14067 14164 14161 14092 14063 14051 14019 14107 14009 14109 14072 14166 14234 14318 14352 14300 14480 14540 14439 14444 14482 14518 14449 14463 14491 14597 14592 14682 14735 14882 14940 15076 15142 15146 15322 15465 15483 15543 15619 15635 15619 15644 15620 15588 15723 15788 15818 16248 16241 16241 16241 16241 16235 16606 16716 16722 16835 17067 17099 17138 17096 17091 17119 17098 16982 16825 16769 16819 16851 16881 16883 16746 16806 16812 16990 17059 17068 17237 17397 17489 17751 17869 18090 18251 18288 18234 18266 18360 18330 18395 18421 18395 18532 18561 18586 18655 18534 18395 18377 18296 18417 18418 18447 18527 18566 18594 18586 18632 18798 18909 19104 19224 19386 19545 19647 19649 19715 19707 19739 19664 19682 19768 19723 19745
10458 10446 10475 10606 10714 10652 10542 10495 10573 10602 10727 10790 10789 10768 10833 11072 11215 11260 11287 11306 11260 11275 11315 11483 11608 11785 11885 11957 11914 12070 12231 12236 12325 12398 12416 12441 12486 12558 12589 12556 12485 12397 12425 12378 12253 12324 12308 12328 12464 12593 12791 12963 13038 13228 13459 13764 13970 14095 14146 14275 14395 14610 14822 15018 15245 15261 15207 15238 15319 15333 15410 15506 15645 15564 15605 15271 15337 15348 15348 15348 15359 15382 15698 15637 15679 15540 15394 15362 15223 15378 15534 15742 15873 15845 15837 15781 15843 15726 15715 15709 15710 15626 15643 15550 15437 15378 15244 15218 15180 15289 15288 15197 15157 15006 14982 14904 14825 14724 14718 14687 14704 14694 14610 14581 14494 14510 14457 14268 14136 14208 14192 14118 14059 14216 14250 14148 14128 14124 14038 14069 14070 13991 13992 14029 14040 14123 14289 14268 14257 14329 14445 14394 14396 14405 14408 14352 14318 14449 14534 14522 14618 14671 14789 14837 14934 14978 15061 15174 15370 15375 15493 15631 15671 15629 15682 15716 15738 15821 15828 15944 16248 16230 16230 16230 16230 16224 16431 16552 16616 16832 17027 17054 17110 17192 17226 17168 17088 17068 16937 16838 16820 16812 16833 16800 16738 16736 16753 16905 16980 17059 17188 17388 17577 17813 17956 18028 18146 18162 18091 18224 18334 18397 18399 18381 18419 18438 18408 18446 18551 18382 18277 18360 18355 18257 18258 18300 18402 18427 18565 18520 18538 18675 18788 18979 19239 19336 19436 19547 19675 19648 19701 19712 19705 19653 19605 19686 19701
10629 10610 10608 10767 10830 10795 10675 10725 10874 10901 10937 10981 10904 10941 11011 11132 11252 11280 11318 11319 11377 11483 11456 11613 11656 11802 11968 11930 12044 12073 12281 12329 12410 12401 12453 12463 12519 12597 12583 12657 12608 12465 12527 12339 12223 12283 12322 12348 12400 12651 12839 12948 13184 13325 13558 13803 13974 14086 14191 14256 14393 14621 14815 14984 15281 15264 15258 15351 15404 15387 15391 15513 15699 15607 15651 15254 15322 15322 15322 15322 15350 15625 15701 15690 15616 15531 15443 15372 15192 15347 15564 15738 15798 15830 15942 15849 15908 15896 15767 15783 15698 15672 15563 15436 15315 15224 15233 15190 15093 15204 15144 15159 15072 14945 14819 14862 14812 14800 14747 14837 14842 14827 14717 14729 14630 14484 14407 14222 14156 14226 14140 14170 14179 14316 14380 14295 14247 14164 14122 14035 14009 14012 13971 13976 13924 14015 14149 14175 14145 14241 14320 14253 14314 14386 14351 14293 14223 14368 14372 14411 14451 14594 14708 14823 14874 14974 15100 15249 15407 15461 15489 15595 15735 15775 15717 15758 15789 15801 15828 16006 16035 16218 16218 16218 16218 16218 16382 16463 16615 16719 16920 17020 17087 17096 17203 17217 17190 17089 17004 16972 16944 16870 16772 16789 16733 16711 16695 16810 16931 17099 17177 17432 17622 17747 17846 17989 18156 18127 18160 18241 18222 18266 18279 18323 18313 18306 18311 18386 18335 18282 18253 18354 18354 18248 18150 18117 18229 18365 18470 18497 18442 18560 18760 18935 19138 19255 19304 19492 19590 19581 19500 19487 19501 19534 19519 19574 19664
10675 10673 10738 10806 10887 10924 10928 11029 11120 11159 11194 11202 11095 11050 11066 11111 11204 11325 11375 11534 11579 11578 11588 11728 11812 11917 12009 12002 12063 12109 12232 12337 12495 12499 12541 12570 12590 12627 12685 12643 12703 12575 12529 12343 12262 12240 12275 12262 12321 12572 12838 13056 13315 13459 13608 13784 13941 14084 14194 14261 14449 14713 14878 15023 15268 15326 15274 15371 15400 15432 15470 15547 15730 15717 15717 15214 15279 15279 15279 15279 15343 15662 15695 15660 15506 15528 15455 15280 15156 15306 15469 15677 15788 15823 15951 15941 15941 15977 15932 15793 15743 15632 15458 15375 15258 15152 15128 15065 15117 15049 15066 15042 14938 14843 14723 14777 14761 14799 14812 14834 14854 14864 14887 14863 14739 14527 14399 14290 14125 14193 14168 14171 14193 14310 14409 14462 14438 14387 14314 14166 13960 13982 13964 13939 13910 13928 14032 14059 14050 14099 14071 14201 14289 14278 14320 14230 14196 14188 14264 14256 14328 14521 14597 14718 14894 15023 15030 15243 15416 15466 15528 15701 15812 15806 15761 15782 15784 15794 15863 16026 16139 16213 16200 16200 16200 16200 16162 16556 16619 16755 16892 17002 17068 17136 17202 17272 17223 17243 17157 17093 16974 16875 16806 16831 16763 16747 16694 16735 16774 17027 17292 17460 17616 17696 17849 17967 18204 18105 18128 18195 18221 18164 18132 18149 18132 18201 18253 18229 18205 18212 18184 18201 18240 18112 18081 18006 18040 18176 18288 18304 18285 18491 18710 18804 19023 19136 19139 19305 19431 19390 19419 19404 19415 19462 19391 19485 19538
10732 10808 10880 10919 11029 10961 11021 11198 11265 11253 11360 11339 11244 11090 11103 11215 11269 11457 11532 11563 11633 11701 11767 11846 11909 12009 12158 12086 12090 12300 12429 12462 12562 12510 12599 12678 12564 12619 12711 12654 12701 12728 12637 12521 12376 12440 12364 12403 12441 12710 13041 13220 13403 13558 13753 13862 13997 14136 14210 14344 14557 14674 14889 15039 15269 15232 15219 15295 15371 15433 15340 15405 15628 15561 15503 15197 15232 15232 15232 15232 15319 15694 15692 15688 15475 15540 15436 15336 15151 15292 15484 15621 15755 15748 15781 15792 15847 15832 15760 15695 15678 15459 15364 15341 15201 15180 15201 15106 15121 15139 15164 15083 14903 14904 14891 14829 14839 14791 14745 14789 14873 14828 14770 14768 14642 14563 14378 14231 14010 14055 14149 14122 14212 14286 14415 14463 14538 14475 14379 14235 13966 13999 14032 14008 13991 14015 14139 14107 14071 14068 14147 14243 14251 14279 14360 14241 14230 14233 14319 14353 14362 14461 14582 14701 14831 14914 14930 15145 15419 15489 15491 15628 15761 15714 15689 15657 15764 15851 15962 16114 16132 16201 16181 16181 16181 16181 16155 16447 16559 16719 16838 16943 16959 16992 17071 17151 17124 17142 17171 17101 17011 16935 16893 16853 16781 16763 16622 16679 16744 16972 17206 17445 17647 17782 17834 17944 18139 18155 18043 18086 18147 18167 18076 18126 18184 18177 18312 18264 18224 18306 18288 18257 18268 18138 18116 18121 18080 18195 18371 18347 18284 18443 18597 18730 19009 19107 19100 19195 19357 19314 19382 19359 19359 19337 19369 19402 19430
10778 10887 10914 10942 11091 11117 11195 11294 11405 11407 11449 11421 11269 11195 11242 11293 11422 11502 11564 11637 11726 11777 11921 12009 12065 12103 12265 12247 12243 12402 12504 12567 12632 12625 12719 12749 12660 12732 12748 12776 12735 12774 12706 12580 12491 12552 12544 12541 12590 12807 13121 13367 13566 13763 13907 14004 14078 14180 14288 14456 14732 14795 14859 14972 15204 15136 15101 15217 15323 15358 15281 15345 15534 15491 15373 15182 15184 15184 15184 15184 15193 15625 15711 15694 15562 15488 15418 15342 15242 15417 15557 15676 15706 15753 15715 15698 15668 15679 15570 15491 15508 15417 15352 15330 15237 15184 15237 15183 15079 15103 15137 14981 14906 14925 14938 14855 14822 14757 14746 14729 14793 14682 14657 14671 14604 14467 14442 14244 14022 14040 14170 14199 14264 14306 14404 14502 14570 14525 14384 14293 14093 14140 14185 14139 14107 14126 14196 14091 14105 14201 14223 14199 14246 14271 14290 14200 14237 14288 14403 14425 14353 14442 14547 14649 14651 14695 14859 15077 15319 15389 15472 15557 15701 15690 15678 15626 15703 15810 16015 16115 16216 16196 16168 16160 16160 16160 16139 16104 16534 16733 16828 16941 16930 16935 17054 17056 17001 17035 17110 17007 16940 16967 16929 16859 16701 16698 16623 16584 16665 16885 17122 17424 17730 17861 17917 18091 18177 18125 18076 18160 18145 18149 18064 18142 18171 18182 18248 18312 18338 18420 18387 18283 18251 18128 18050 18031 18135 18234 18345 18283 18297 18378 18508 18679 18935 19048 19079 19189 19364 19322 19302 19319 19332 19307 19322 19422 19438
10897 11069 11196 11201 11379 11405 11373 11526 11597 11550 11633 11494 11468 11451 11415 11403 11411 11504 11514 11667 11783 11808 11946 12013 12076 12227 12282 12280 12395 12473 12648 12781 12830 12805 12909 12880 12698 12735 12810 12811 12850 12809 12785 12694 12606 12555 12619 12579 12661 12817 13111 13318 13639 13759 13902 14038 14223 14323 14387 14626 14848 14904 14893 14953 15120 15139 15036 15091 15223 15214 15218 15366 15480 15328 15285 15164 15127 15127 15127 15127 15066 15573 15604 15575 15613 15504 15373 15249 15224 15382 15414 15560 15625 15684 15664 15637 15577 15526 15359 15339 15367 15220 15146 15234 15239 15169 15217 15209 15115 15113 15112 15072 14918 15000 14976 14918 14927 14808 14664 14619 14618 14595 14523 14628 14656 14490 14339 14201 13950 14028 14175 14319 14405 14392 14486 14597 14650 14497 14463 14402 14222 14247 14214 14243 14170 14225 14266 14188 14096 14153 14219 14188 14253 14192 14290 14238 14233 14330 14419 14417 14401 14434 14484 14563 14587 14682 14773 15039 15363 15413 15452 15627 15688 15694 15680 15703 15674 15890 16001 16133 16219 16182 16154 16138 16128 16128 16120 16084 16059 16556 16635 16759 16766 16818 16949 17004 16959 17078 17112 17059 16943 16975 16919 16888 16801 16830 16804 16755 16679 17007 17263 17439 17630 17791 17824 18088 18167 18059 18042 18095 18027 18088 18015 18061 18151 18201 18162 18284 18394 18462 18455 18299 18267 18179 18158 18142 18128 18150 18284 18276 18209 18363 18484 18699 18929 18985 19048 19119 19312 19326 19373 19372 19455 19385 19279 19265 19306
10962 11097 11358 11444 11549 11582 11559 11686 11793 11819 11755 11644 11631 11538 11509 11556 11481 11522 11566 11689 11871 11984 12043 12073 12140 12233 12368 12452 12573 12644 12666 12850 12930 13027 13000 12945 12823 12871 12972 13006 12973 12879 12884 12818 12756 12633 12621 12706 12699 12861 13090 13359 13651 13808 13932 14058 14308 14386 14563 14760 14922 14983 14938 14955 14992 15025 14953 14985 15053 15104 15191 15228 15364 15266 15189 15146 15102 15102 15102 15102 15059 15495 15512 15583 15545 15516 15423 15287 15257 15320 15347 15456 15642 15621 15490 15536 15530 15376 15259 15195 15130 15083 15053 15150 15158 15145 15190 15258 15200 15106 15044 15069 14975 14949 14963 14973 14961 14854 14660 14646 14512 14529 14461 14484 14631 14539 14321 14153 14006 14002 14105 14278 14459 14511 14634 14666 14670 14554 14455 14476 14421 14295 14281 14215 14234 14269 14246 14178 14107 14230 14239 14273 14194 14191 14304 14290 14337 14406 14369 14432 14381 14437 14492 14540 14556 14690 14797 14985 15287 15347 15464 15617 15727 15686 15718 15722 15687 15843 16114 16230 16308 16334 16147 16130 16098 16098 16098 16058 16032 16366 16477 16491 16620 16701 16804 16963 17022 17100 17058 17023 16975 16915 16958 16952 16875 16923 16882 16760 16733 16976 17279 17521 17647 17804 17837 18041 18130 18112 18097 18038 17982 18027 18021 18043 18141 18099 18134 18195 18363 18459 18431 18290 18275 18214 18204 18184 18120 18152 18265 18180 18192 18404 18497 18723 18874 18919 18977 19088 19190 19263 19407 19453 19480 19423 19350 19307 19257
11081 11139 11318 11476 11535 11583 11638 11744 11809 11832 11719 11671 11618 11699 11710 11660 11717 11773 11749 11760 11894 11962 12076 12133 12129 12324 12366 12419 12557 12673 12749 12826 12959 12983 13016 12947 12981 12983 13084 13142 13069 13024 13050 12974 12896 12846 12841 12873 12906 13033 13108 13344 13680 13865 14064 14126 14324 14500 14648 14823 14883 14975 15050 15046 15064 15018 14966 15058 15064 15122 15067 15155 15177 15070 15042 15116 15078 15065 15065 15065 15048 15026 15363 15399 15389 15332 15333 15144 15057 15215 15296 15379 15458 15411 15332 15410 15521 15317 15132 15063 15084 15038 14945 14970 15105 15059 15028 15065 15168 15157 15132 15092 14911 14927 14924 14899 14846 14839 14663 14654 14526 14535 14588 14593 14537 14481 14264 14156 14002 14061 14093 14227 14321 14443 14502 14534 14660 14511 14478 14473 14454 14327 14348 14335 14266 14335 14265 14326 14286 14298 14336 14330 14296 14244 14357 14366 14405 14315 14341 14392 14375 14441 14453 14484 14545 14609 14742 14916 15227 15347 15371 15520 15589 15686 15672 15746 15738 15858 15953 16106 16127 16124 16133 16115 16079 16054 16054 16031 16005 15963 16472 16472 16561 16655 16678 16846 16915 17072 17114 17146 17094 17055 16982 16996 16929 16934 16909 16918 16852 17135 17323 17379 17503 17665 17873 17932 18039 18090 18160 18110 18125 18199 18181 18149 18146 18159 18136 18252 18324 18318 18431 18431 18401 18374 18377 18302 18127 18152 18276 18125 18102 18367 18474 18676 18881 18934 18879 19003 19084 19198 19235 19325 19368 19359 19302 19247 19270
11198 11227 11312 11426 11458 11663 11762 11829 11888 11881 11801 11724 11731 11822 11851 11854 11889 11946 11940 11873 11888 12000 12188 12198 12244 12338 12371 12492 12585 12734 12850 12823 12874 12935 12994 13046 13191 13216 13176 13178 13089 13180 13158 13062 12966 13008 12941 12928 13019 13137 13193 13365 13606 13914 14103 14248 14320 14558 14707 14781 14861 14942 15097 15072 15031 14969 14959 15019 15080 15072 14966 14972 15034 15029 14999 15104 15068 15052 15052 15052 15045 15026 15162 15197 15193 15135 15162 15112 14942 15058 15168 15305 15342 15259 15296 15370 15419 15294 15094 15012 14983 14993 14907 14924 14993 15019 14938 15017 15171 15206 15133 15038 14973 14947 14870 14848 14812 14758 14681 14689 14619 14675 14623 14541 14516 14468 14331 14104 13978 14066 14119 14216 14202 14280 14472 14477 14555 14519 14587 14535 14581 14459 14420 14423 14330 14418 14403 14427 14390 14329 14366 14351 14337 14347 14427 14385 14362 14339 14204 14232 14249 14323 14326 14457 14485 14537 14618 14939 15202 15224 15308 15411 15530 15592 15559 15692 15765 15777 15822 15892 16058 16036 16125 16106 16069 16043 16013 16001 15974 15930 15896 16441 16524 16547 16629 16716 16929 16996 17120 17175 17163 17121 16955 16949 16922 17015 16995 17049 17063 17229 17285 17404 17449 17609 17825 17897 18012 18159 18285 18311 18302 18352 18278 18269 18216 18135 18112 18178 18176 18209 18344 18486 18519 18521 18437 18334 18253 18181 18174 18086 18108 18349 18547 18687 18765 18820 18756 18903 18950 19049 19057 19174 19324 19235 19188 19229 19183
11400 11472 11508 11546 11541 11740 11840 11924 11981 11983 11882 11814 11902 11983 11988 12033 12134 12091 12091 11970 12039 12114 12103 12226 12352 12307 12298 12439 12580 12691 12775 12779 12897 13060 13182 13218 13320 13245 13304 13293 13276 13227 13208 13221 13167 13203 13083 13133 13122 13212 13343 13464 13707 13911 14138 14247 14458 14597 14761 14900 14954 15108 15177 15182 15124 15017 14979 15002 15092 15009 14928 14867 14812 14870 14808 14754 15051 15037 15036 15036 15036 15027 15028 15035 15081 15090 15043 15064 14948 15026 15068 15128 15208 15256 15293 15337 15372 15126 14967 14912 14909 14962 14874 14820 14796 14865 14824 14984 15055 15123 15040 15029 15087 15056 14933 14820 14814 14727 14740 14678 14590 14613 14600 14564 14481 14422 14358 14134 13977 14078 14150 14230 14131 14293 14441 14464 14497 14569 14613 14604 14630 14517 14501 14433 14271 14373 14343 14385 14472 14464 14513 14489 14493 14450 14521 14433 14291 14329 14226 14205 14154 14241 14313 14316 14376 14525 14599 14792 15098 15164 15333 15450 15539 15523 15538 15575 15640 15735 15739 15863 16081 16072 16088 16088 16046 16019 15972 15972 15958 15913 15880 16454 16476 16554 16572 16726 16869 16959 17074 17197 17230 17087 17008 16917 16950 17007 16997 17061 17127 17280 17401 17443 17425 17580 17731 17857 18023 18138 18295 18289 18322 18354 18247 18233 18251 18267 18193 18226 18218 18245 18406 18555 18603 18494 18457 18389 18338 18332 18294 18275 18149 18282 18453 18556 18679 18720 18722 18937 19005 19051 18987 19129 19177 19164 19222 19108 19058
11580 11557 11663 11600 11594 11700 11804 11951 12088 12050 11949 11952 11968 11988 12067 12197 12262 12231 12212 12103 12121 12102 12137 12268 12409 12350 12332 12449 12449 12586 12786 12831 12950 13106 13280 13298 13359 13303 13373 13372 13385 13345 13326 13279 13277 13371 13342 13217 13186 13350 13411 13575 13753 14002 14163 14371 14560 14709 14871 14975 15027 15145 15168 15195 15219 15158 15106 15110 14994 14930 14787 14787 14664 14697 14685 14676 15037 15029 15031 15031 15031 15030 15034 15011 15059 15019 14962 14974 14861 14886 14966 15105 15178 15205 15300 15290 15204 15045 14951 14862 14863 14854 14757 14730 14682 14727 14817 14895 15036 15046 15043 15069 15129 15108 15033 14890 14816 14797 14760 14691 14676 14609 14541 14440 14389 14356 14262 14169 13980 14134 14195 14189 14172 14360 14476 14537 14560 14597 14585 14571 14633 14538 14540 14369 14205 14270 14335 14445 14498 14504 14597 14542 14610 14585 14499 14425 14281 14295 14203 14176 14118 14195 14188 14213 14248 14412 14456 14627 14882 15047 15279 15419 15463 15427 15485 15599 15639 15695 15766 15924 15986 15995 16056 16190 16019 15991 15943 15911 15911 15880 15847 15797 16332 16396 16569 16663 16796 16868 17017 17083 17190 17201 17127 17009 16940 17023 16990 17022 17150 17243 17441 17414 17489 17666 17765 17857 18043 18217 18333 18294 18382 18286 18287 18325 18291 18294 18223 18264 18209 18320 18447 18485 18588 18569 18552 18402 18356 18375 18393 18332 18230 18285 18320 18412 18539 18655 18761 18903 18960 18983 18933 18949 19058 19102 19160 19141 19025
11630 11677 11687 11636 11743 11890 11933 11912 12009 12103 12012 12108 12108 12129 12101 12191 12283 12332 12237 12242 12333 12337 12291 12431 12452 12488 12411 12512 12732 12790 12943 13035 13088 13185 13322 13318 13347 13316 13397 13405 13516 13411 13376 13327 13331 13398 13353 13344 13380 13442 13541 13638 13825 13990 14198 14399 14532 14700 14857 14893 14955 15070 15090 15223 15293 15144 15021 15096 14986 14876 14758 14751 14720 14706 14790 14725 14720 15027 15032 15032 15032 15032 15037 14965 15013 15034 14974 14988 14877 14859 14951 15086 15242 15192 15167 15196 15121 15059 15072 14944 14904 14799 14697 14607 14646 14724 14808 14939 14996 15091 15060 15124 15100 15072 14845 14778 14684 14758 14727 14596 14675 14600 14554 14424 14266 14298 14237 14089 14003 14067 14188 14198 14245 14353 14402 14340 14362 14401 14321 14361 14492 14386 14314 14219 14015 14049 14181 14364 14460 14463 14434 14403 14440 14471 14358 14340 14207 14276 14210 14156 14067 14077 14088 14124 14193 14397 14510 14715 14904 15035 15214 15306 15418 15416 15405 15573 15605 15663 15643 15731 15778 15795 15920 15964 15998 15963 15913 15864 15848 15848 15815 15766 15717 16329 16459 16535 16657 16692 16788 16892 16957 16938 16874 16872 16724 16827 16853 16951 17033 17138 17350 17390 17486 17556 17715 17815 17875 18087 18142 18136 18271 18308 18279 18301 18334 18278 18249 18309 18288 18278 18339 18425 18569 18481 18473 18368 18264 18371 18435 18400 18313 18396 18393 18452 18615 18655 18760 18763 18845 18804 18797 18851 19009 19040 19010 18968 18963
11564 11676 11684 11717 11863 11980 12062 11999 12059 12165 12166 12152 12123 12234 12258 12229 12328 12382 12325 12414 12454 12514 12471 12558 12562 12590 12564 12686 12889 13000 13113 13093 13127 13268 13302 13305 13307 13380 13448 13459 13552 13504 13376 13343 13405 13389 13445 13471 13561 13632 13744 13840 13907 14031 14245 14376 14632 14762 14818 14823 14847 15000 15032 15208 15274 15139 15045 15034 14942 14767 14692 14669 14774 14794 14776 14792 14872 15028 15038 15043 15043 15043 15048 15076 14974 14919 14913 14924 14864 14901 15002 15105 15212 15220 15153 15211 15158 15120 15079 14991 14839 14727 14598 14563 14539 14618 14744 14911 15027 15023 15051 15075 15124 14985 14782 14683 14526 14613 14621 14542 14580 14526 14450 14412 14264 14291 14201 14105 13951 14049 14082 14210 14250 14179 14223 14158 14120 14146 14145 14233 14318 14221 14181 13948 13798 13911 14042 14197 14300 14253 14261 14255 14373 14318 14233 14215 14133 14146 14111 14069 13978 14028 14080 14163 14235 14292 14451 14658 14830 14893 15037 15166 15280 15368 15429 15476 15558 15534 15584 15569 15585 15605 15730 15740 15799 15822 15880 15831 15799 15783 15783 15734 15686 15653 16392 16544 16574 16588 16644 16706 16725 16747 16701 16641 16536 16547 16636 16800 16946 17129 17252 17380 17540 17506 17562 17715 17831 17914 17946 17976 18099 18187 18250 18348 18384 18390 18321 18318 18293 18269 18221 18299 18480 18430 18306 18326 18254 18345 18367 18315 18272 18351 18506 18586 18607 18617 18704 18728 18695 18754 18718 18807 18876 18790 18799 18788 18847
11655 11664 11768 11812 12001 12046 12143 12120 12123 12182 12141 12192 12173 12222 12280 12297 12375 12461 12510 12535 12626 12722 12624 12730 12700 12694 12737 12915 12998 13044 13108 13043 13105 13171 13328 13300 13283 13291 13435 13448 13544 13548 13426 13499 13521 13593 13628 13595 13663 13851 14013 14008 14088 14269 14335 14412 14577 14631 14697 14767 14831 14984 15012 15207 15294 15213 15043 14984 14864 14780 14688 14717 14820 14791 14762 14876 14973 15030 15049 15052 15052 15052 15055 15076 14968 14984 15047 15013 15028 14971 15086 15165 15296 15297 15202 15209 15239 15160 14991 14856 14704 14728 14671 14523 14524 14658 14772 14893 14962 14945 14962 15042 15111 15004 14817 14658 14471 14505 14542 14442 14420 14379 14201 14190 14188 14138 14184 13986 13859 14033 14028 14145 14180 14092 14144 14098 13944 13996 14048 14084 14119 14090 13981 13807 13698 13779 13868 14080 14213 14152 14151 14143 14265 14135 14049 14081 14022 14048 14081 14114 14057 14058 14025 14105 14141 14320 14499 14677 14805 14802 14966 15091 15175 15254 15342 15345 15460 15414 15389 15434 15400 15474 15464 15560 15619 15585 15847 15798 15766 15735 15735 15719 15672 15642 16223 16287 16408 16491 16482 16623 16646 16587 16483 16451 16412 16548 16635 16752 16817 16970 17112 17227 17426 17453 17441 17583 17685 17803 17860 17949 17942 18070 18080 18235 18368 18366 18275 18229 18268 18248 18206 18209 18393 18414 18330 18302 18218 18197 18222 18298 18280 18417 18450 18501 18463 18528 18518 18575 18576 18617 18758 18722 18738 18809 18798 18769 18800
11722 11748 11845 11906 12081 12175 12166 12153 12255 12260 12193 12233 12285 12403 12425 12542 12537 12600 12689 12774 12855 12894 12891 12873 12775 12856 12986 13124 13142 13132 13185 13110 13131 13165 13264 13288 13200 13242 13335 13485 13665 13602 13575 13640 13632 13664 13722 13815 13894 13978 14162 14219 14232 14398 14440 14424 14514 14612 14632 14739 14807 14898 14939 15147 15300 15190 15107 14941 14835 14734 14755 14835 14862 14815 14861 14897 14949 15025 15076 15076 15076 15076 15076 15076 15066 15080 15186 15148 15101 15123 15178 15269 15399 15407 15362 15317 15288 15101 14866 14705 14653 14701 14630 14542 14493 14642 14812 14886 14998 15011 14903 14953 15029 14970 14788 14582 14347 14366 14395 14325 14348 14251 14072 14090 14045 14043 14048 13982 13839 13945 14082 14156 14139 14096 14101 14035 13880 13914 13885 14008 14036 14025 13904 13826 13638 13648 13754 13879 14012 14022 14026 14129 14164 14137 13991 13997 14019 14066 14019 14048 14055 13999 14067 14147 14151 14316 14471 14554 14672 14702 14834 14940 15116 15097 15169 15226 15272 15269 15256 15208 15260 15323 15263 15364 15401 15422 15387 15782 15750 15705 15692 15692 15647 15619 15583 16162 16195 16321 16386 16412 16444 16410 16325 16328 16383 16453 16569 16577 16651 16827 16892 17170 17348 17409 17370 17459 17579 17678 17754 17815 17870 17945 18007 18205 18337 18285 18237 18224 18261 18268 18178 18153 18211 18260 18311 18228 18228 18208 18178 18280 18311 18373 18432 18471 18426 18407 18369 18413 18507 18585 18674 18637 18650 18742 18764 18719 18719
11612 11787 11938 12017 12109 12175 12257 12371 12445 12444 12394 12440 12448 12495 12511 12664 12660 12737 12879 12955 12927 12868 12900 12967 12901 12935 13072 13193 13178 13143 13185 13182 13203 13275 13286 13352 13329 13419 13488 13617 13734 13756 13713 13760 13740 13786 13894 13939 13953 14102 14284 14276 14378 14420 14449 14530 14580 14660 14814 14812 14925 14957 14965 15158 15239 15224 15191 15090 14980 14918 14755 14845 14824 14874 14882 15021 15025 15178 15114 15109 15109 15109 15099 15076 14941 15007 15076 15064 15013 15052 15082 15215 15249 15270 15423 15401 15359 15232 15007 14897 14682 14660 14586 14504 14549 14622 14802 14844 14921 14867 14783 14820 14985 14869 14752 14533 14304 14338 14293 14306 14239 14144 14131 14104 14044 14029 14096 13923 13870 13851 13960 13919 13957 14066 14072 13916 13875 13781 13725 13780 13830 13854 13703 13708 13597 13638 13699 13725 13773 13879 14026 14093 14203 14182 14112 14125 14026 13991 14047 14028 14050 13999 14030 14112 14113 14242 14350 14431 14517 14591 14644 14745 14851 15001 15034 15116 15213 15221 15187 15154 15253 15131 15118 15144 15261 15248 15328 15751 15719 15675 15637 15637 15622 15596 15561 16029 16048 16223 16266 16276 16358 16246 16266 16290 16439 16482 16459 16515 16539 16758 16932 17160 17272 17373 17340 17339 17485 17522 17619 17759 17836 18019 18109 18195 18279 18233 18202 18235 18239 18265 18229 18212 18179 18302 18387 18378 18355 18299 18264 18339 18269 18328 18455 18411 18452 18472 18391 18365 18432 18421 18587 18508 18577 18568 18624 18619 18612
11557 11762 11982 11963 12068 12197 12411 12408 12510 12511 12507 12464 12495 12548 12655 12710 12836 12947 12987 13057 13002 12881 12864 12964 12965 12997 13057 13151 13298 13208 13197 13177 13210 13259 13424 13524 13514 13485 13555 13627 13798 13814 13954 13961 13929 13915 13965 13992 14106 14349 14485 14460 14553 14554 14585 14739 14771 14799 14939 14936 14962 15021 14955 15095 15214 15242 15214 15158 15016 15000 14867 14806 14798 14929 14982 15029 15046 15183 15134 15127 15127 15127 15108 15076 14906 14947 14951 14998 14965 15007 14962 15011 15099 15195 15417 15445 15435 15363 15213 15060 14828 14674 14591 14515 14514 14673 14756 14798 14831 14826 14776 14802 14953 14855 14714 14456 14217 14171 14237 14221 14202 14129 14138 14105 14155 14103 14075 13970 13822 13843 13801 13796 13879 13926 13922 13877 13817 13781 13670 13700 13679 13661 13561 13504 13480 13493 13572 13561 13657 13758 13916 13972 14126 14068 14133 14117 14085 14021 14028 14027 14091 14047 13962 13928 13960 14127 14333 14366 14456 14454 14414 14507 14547 14777 14919 14963 15115 15090 15125 15200 15155 15017 14974 15010 15081 15238 15308 15295 15688 15645 15609 15584 15584 15571 15535 15495 16012 16078 16173 16174 16195 16201 16232 16359 16440 16375 16332 16412 16552 16725 16911 17082 17226 17254 17210 17224 17364 17452 17536 17663 17843 17986 18096 18074 18179 18220 18185 18082 18103 18180 18189 18202 18227 18341 18414 18409 18420 18428 18369 18349 18300 18314 18456 18486 18500 18412 18334 18265 18299 18290 18391 18471 18456 18406 18366 18425 18481
11549 11686 11973 12035 12191 12320 12507 12623 12701 12659 12749 12720 12660 12800 12894 13031 13136 13176 13144 13028 12979 12909 12920 12973 13035 13065 13193 13232 13222 13247 13317 13320 13396 13375 13511 13543 13500 13520 13628 13770 13971 14000 14131 14052 14087 14180 14161 14256 14289 14446 14623 14567 14549 14579 14765 14845 14838 14945 14968 14924 14866 15037 15027 15177 15307 15226 15164 15185 15078 14936 14855 14843 14703 14919 14967 15015 15195 15188 15158 15158 15158 15153 15127 15049 14969 14908 14956 14963 14975 14907 14925 15009 15118 15149 15329 15401 15475 15446 15296 15126 14850 14751 14737 14602 14559 14699 14723 14719 14687 14705 14799 14877 14950 14727 14573 14450 14230 14199 14252 14211 14097 14120 14110 14121 14146 14022 13992 13851 13660 13727 13792 13785 13880 13831 13839 13841 13744 13640 13675 13563 13587 13488 13398 13372 13368 13455 13513 13475 13533 13674 13740 13881 13931 13924 14056 14072 14052 14031 14075 14063 13979 14032 13943 13923 13985 14020 14169 14238 14300 14300 14276 14342 14334 14590 14774 14826 14915 14931 15046 15000 15059 14892 14883 14880 14876 15007 15179 15266 15336 15619 15584 15545 15532 15532 15506 15466 15420 16062 16107 16084 16081 16054 16143 16255 16306 16292 16289 16456 16502 16665 16827 16920 17084 17134 17042 17143 17180 17345 17446 17638 17733 17922 18083 18118 18278 18173 18130 18139 18126 18169 18242 18268 18198 18325 18358 18331 18383 18347 18410 18406 18385 18446 18456 18525 18517 18471 18353 18286 18277 18237 18259 18206 18249 18253 18119 18211 18287
11473 11692 11965 12121 12236 12421 12604 12737 12812 12806 12926 12864 12917 13011 13117 13222 13310 13308 13269 13101 13002 13067 13018 13089 13037 13133 13232 13240 13273 13364 13454 13524 13525 13555 13646 13563 13580 13650 13827 13979 14101 14265 14314 14280 14277 14358 14465 14486 14491 14595 14684 14605 14648 14696 14855 14864 14954 14961 15024 15016 14895 15033 15139 15172 15293 15225 15235 15196 15125 14929 14793 14802 14705 14831 15024 15119 15196 15191 15173 15173 15173 15161 15137 15011 14969 14971 14853 14876 14918 14931 14878 14915 15041 15196 15288 15454 15625 15491 15379 15102 14924 14858 14768 14677 14580 14604 14576 14624 14549 14623 14750 14814 14868 14739 14497 14361 14202 14148 14182 14077 14046 14016 13988 13980 14018 13950 13927 13717 13591 13597 13665 13772 13803 13804 13705 13736 13704 13602 13555 13530 13541 13389 13310 13303 13208 13361 13440 13442 13423 13508 13577 13765 13854 13874 13958 13985 14036 14086 14066 13989 13930 13959 13895 13904 14005 14057 14056 14054 14089 14113 14234 14194 14168 14402 14522 14577 14757 14792 14882 14826 14880 14844 14766 14802 14790 14845 14979 15132 15204 15608 15573 15533 15505 15505 15492 15451 15406 16094 16120 16105 16008 16026 16173 16179 16287 16309 16259 16391 16471 16535 16664 16851 16955 17020 16985 17018 17085 17312 17415 17531 17660 17861 18013 18147 18271 18256 18154 18143 18162 18237 18295 18278 18265 18354 18414 18403 18472 18403 18365 18445 18513 18493 18521 18434 18437 18398 18367 18262 18158 18044 18016 18022 18048 18027 17986 18017 18108
11620 11843 12024 12181 12208 12422 12510 12665 12862 12939 12967 12977 13009 13077 13223 13395 13492 13428 13407 13314 13228 13215 13240 13246 13296 13365 13430 13496 13518 13640 13674 13624 13616 13681 13786 13734 13735 13903 14028 14161 14192 14372 14393 14460 14447 14506 14560 14580 14551 14591 14643 14710 14756 14804 14788 14883 14927 14911 14981 14937 14891 14964 15014 15104 15187 15170 15061 14995 15032 14841 14815 14821 14743 14867 14984 15191 15194 15191 15187 15187 15186 15179 15158 15003 14976 14933 14896 14913 14998 15030 15007 15088 15152 15327 15400 15507 15597 15532 15414 15183 14875 14859 14771 14679 14539 14570 14529 14544 14448 14582 14681 14699 14759 14582 14467 14318 14108 14084 14099 13984 13924 13891 13850 13925 13944 13918 13789 13707 13476 13484 13486 13556 13732 13699 13640 13574 13667 13542 13387 13283 13259 13291 13192 13171 13138 13195 13306 13262 13347 13468 13462 13612 13755 13873 13861 13963 13977 13982 14073 13977 13934 13948 13929 13930 14074 14143 14118 14201 14172 14196 14259 14131 14107 14314 14426 14539 14642 14679 14830 14746 14842 14714 14762 14710 14756 14741 14848 14997 15070 15149 15549 15508 15479 15448 15448 15420 15374 15341 15961 15876 15901 15968 16082 16087 16075 16133 16171 16227 16319 16393 16527 16638 16797 16893 17069 17114 17060 17324 17431 17607 17628 17859 18001 18171 18374 18333 18204 18171 18263 18277 18218 18288 18227 18253 18279 18318 18480 18377 18412 18438 18504 18371 18348 18419 18413 18338 18226 18195 18196 18080 17987 18114 18151 18062 18005 17994 18064
11835 11954 12092 12152 12116 12315 12498 12655 12800 12916 13020 12965 12979 13167 13340 13539 13672 13657 13520 13550 13494 13464 13509 13435 13430 13523 13678 13745 13775 13789 13871 13808 13815 13902 13923 13820 13844 14042 14165 14262 14353 14403 14530 14581 14544 14631 14626 14633 14682 14665 14689 14811 14851 14793 14832 14779 14781 14903 14992 14899 14786 14899 14969 15058 15090 15057 15014 14901 14862 14812 14850 14844 14734 14876 15185 15189 15193 15192 15192 15193 15194 15190 15158 15141 15039 15054 15066 15048 15128 15190 15172 15203 15314 15311 15402 15493 15520 15410 15388 15186 14948 14868 14859 14781 14626 14500 14427 14390 14303 14475 14551 14601 14598 14488 14425 14169 13975 13985 14037 13958 13846 13837 13803 13872 13979 13819 13751 13618 13427 13413 13357 13427 13574 13517 13466 13511 13526 13397 13289 13168 13103 13129 13061 13077 13076 13080 13099 13171 13258 13342 13344 13491 13747 13751 13745 13881 13987 14024 13991 14032 14003 14063 14043 14033 14132 14259 14260 14253 14168 14188 14236 14145 14154 14224 14367 14488 14559 14683 14695 14654 14707 14619 14638 14658 14701 14749 14699 14925 15030 15182 15233 15481 15451 15405 15390 15390 15344 15313 15271 15758 15808 15917 15926 15975 15910 16008 16109 16256 16291 16271 16375 16484 16686 16831 17032 17073 17160 17316 17486 17607 17691 17869 17951 18177 18385 18330 18161 18275 18286 18199 18130 18206 18220 18251 18251 18353 18363 18443 18496 18491 18402 18286 18283 18269 18282 18269 18188 18136 18126 18052 18052 18122 18191 18133 18134 17976 17938
11877 12014 12060 12116 12069 12240 12448 12646 12752 12891 12969 12996 13062 13226 13486 13600 13808 13751 13642 13639 13758 13786 13799 13685 13585 13672 13808 13893 14073 14063 14180 14080 13990 13978 14044 14082 14047 14106 14210 14358 14454 14419 14566 14531 14612 14611 14714 14654 14733 14698 14664 14803 14869 14871 14784 14796 14819 14924 14962 14855 14772 14804 14827 14826 14935 14965 14979 14894 14862 14869 14800 14897 14879 14947 15180 15184 15189 15189 15189 15194 15195 15192 15290 15190 15191 15193 15132 15108 15120 15180 15319 15265 15354 15329 15365 15461 15531 15439 15348 15106 15004 14914 14827 14663 14569 14458 14407 14365 14244 14290 14264 14312 14422 14341 14375 14178 13912 14005 14021 13943 13839 13882 13845 13868 13962 13716 13596 13439 13290 13357 13285 13394 13410 13360 13359 13346 13346 13255 13227 13034 13009 13051 13010 12970 12935 12886 12978 13093 13128 13276 13270 13440 13620 13654 13695 13802 13954 14001 13909 14005 13969 14080 14080 14178 14211 14235 14272 14212 14191 14143 14113 14123 14033 14200 14239 14314 14480 14510 14513 14467 14559 14580 14552 14509 14599 14640 14656 14785 14945 15078 15069 15451 15421 15374 15331 15331 15316 15286 15244 15554 15617 15714 15761 15817 15692 15817 16040 16167 16184 16198 16293 16412 16556 16772 16905 17024 17157 17309 17460 17546 17597 17793 17995 18211 18352 18291 18162 18203 18303 18253 18235 18253 18288 18251 18304 18335 18422 18375 18422 18355 18370 18241 18298 18188 18212 18235 18143 18173 18202 18185 18196 18188 18275 18174 18144 18041 17928
11950 11933 11962 12014 12021 12178 12458 12561 12655 12784 12953 13083 13242 13436 13624 13752 13833 13762 13737 13771 13897 13976 13989 13871 13854 13920 13954 14148 14291 14398 14391 14307 14259 14188 14234 14228 14284 14295 14319 14378 14490 14477 14543 14607 14640 14733 14811 14775 14801 14793 14728 14816 14835 14877 14798 14792 14819 14863 14871 14905 14828 14770 14687 14667 14663 14780 14831 14802 14822 14851 14770 14877 14970 15168 15175 15180 15184 15184 15186 15194 15197 15349 15313 15383 15339 15335 15313 15250 15210 15252 15402 15425 15354 15326 15406 15536 15583 15443 15331 15098 14989 14927 14869 14644 14506 14379 14321 14253 14154 14082 14080 14106 14240 14238 14199 14042 13939 13905 13960 13868 13872 13808 13761 13769 13819 13670 13429 13399 13254 13265 13216 13228 13226 13283 13271 13220 13278 13102 13053 12961 12871 12937 12939 12854 12789 12780 12884 13046 13112 13207 13308 13460 13609 13685 13689 13825 13948 13925 13931 13917 14026 14062 14212 14255 14234 14244 14265 14211 14131 14104 14003 14033 14002 14135 14239 14235 14354 14356 14382 14360 14318 14403 14444 14475 14556 14559 14578 14661 14825 14895 15027 15167 15393 15343 15301 15288 15288 15273 15232 15195 15451 15497 15566 15630 15597 15770 15904 15965 16136 16173 16176 16294 16467 16604 16794 16971 17030 17120 17313 17385 17531 17665 17922 18158 18269 18221 18225 18299 18341 18243 18217 18250 18260 18258 18336 18358 18401 18437 18395 18293 18297 18229 18243 18145 18095 18203 18191 18267 18304 18300 18267 18218 18283 18253 18127 17939 17851
11885 11949 12048 12034 12066 12273 12435 12517 12654 12807 12918 13083 13134 13388 13526 13791 13948 13975 13941 14017 13952 14080 14119 14035 14083 14055 14136 14367 14557 14605 14549 14466 14481 14428 14452 14357 14442 14364 14395 14430 14470 14546 14543 14608 14750 14841 14857 14843 14817 14827 14795 14793 14817 14930 14855 14866 14828 14809 14871 14882 14752 14719 14579 14614 14598 14692 14796 14884 14881 14881 14956 14926 15010 15171 15175 15179 15179 15179 15182 15191 15448 15516 15469 15524 15496 15395 15265 15253 15297 15293 15444 15385 15342 15336 15376 15453 15617 15455 15274 15127 15005 14994 14870 14669 14550 14421 14385 14181 14080 14026 13970 14049 14204 14201 14105 13948 13855 13923 13954 13858 13848 13768 13729 13722 13719 13634 13464 13361 13247 13191 13216 13120 13098 13215 13218 13192 13161 13043 13010 12926 12815 12865 12940 12886 12823 12802 12954 13064 13177 13293 13413 13550 13606 13705 13745 13882 13916 13810 13797 13824 13901 14020 14134 14116 14108 14150 14222 14185 14144 14139 14019 14014 14007 14126 14210 14307 14301 14381 14344 14403 14341 14451 14475 14609 14625 14670 14606 14729 14839 14920 15045 15138 15134 15327 15286 15249 15249 15249 15210 15175 15332 15345 15389 15461 15579 15752 15859 15996 16146 16104 16138 16280 16368 16566 16837 17018 17110 17194 17437 17469 17581 17826 17917 18180 18277 18211 18254 18382 18416 18369 18321 18310 18258 18270 18380 18370 18489 18379 18300 18278 18291 18169 18187 18113 18091 18174 18175 18264 18193 18250 18155 18215 18224 18225 18176 17944 17879
11908 11993 12066 12018 12070 12332 12488 12510 12626 12848 12944 12981 13080 13329 13545 13743 14012 14062 14127 14154 14075 14223 14274 14196 14241 14284 14401 14590 14713 14756 14725 14687 14682 14588 14570 14536 14512 14536 14537 14509 14476 14570 14557 14690 14780 14883 14883 14937 14888 14890 14933 14869 14919 14943 14919 14831 14813 14759 14784 14781 14712 14573 14454 14484 14472 14732 14871 14900 15035 15008 15094 15113 15010 15175 15176 15176 15176 15176 15177 15551 15634 15633 15519 15586 15574 15394 15308 15278 15319 15298 15360 15246 15208 15264 15297 15491 15562 15458 15310 15158 15074 14962 14895 14740 14611 14500 14373 14225 14065 14053 13945 14040 14054 14041 13967 13850 13841 13809 13893 13778 13714 13707 13815 13824 13715 13665 13545 13398 13221 13187 13118 13106 13081 13075 13111 13078 13165 13072 12928 12844 12837 12883 12875 12815 12774 12862 13075 13111 13218 13314 13421 13487 13648 13626 13732 13796 13783 13730 13721 13818 13809 13909 14008 13980 14071 14234 14277 14231 14165 14075 14053 13974 14015 14121 14178 14301 14305 14272 14361 14371 14364 14458 14524 14619 14593 14679 14747 14726 14768 14856 15030 15017 15015 15300 15258 15222 15203 15203 15191 15160 15136 15310 15302 15335 15446 15685 15877 15929 16056 16109 16216 16320 16319 16513 16807 16943 17118 17257 17457 17592 17682 17891 18033 18206 18398 18276 18264 18401 18457 18407 18366 18349 18332 18438 18530 18504 18524 18403 18313 18282 18268 18174 18171 18190 18106 18128 18206 18209 18178 18107 18137 18203 18239 18162 18140 18024 17837
12045 12111 12096 12038 12068 12284 12433 12503 12645 12755 12772 12920 13112 13322 13563 13802 13959 14099 14144 14142 14215 14316 14410 14456 14465 14498 14616 14742 14859 14880 14790 14796 14901 14865 14764 14740 14602 14569 14533 14551 14558 14689 14754 14832 14905 14879 14886 15005 15058 15058 15094 15055 14945 14838 14852 14766 14765 14615 14618 14554 14525 14438 14390 14404 14413 14675 14866 14991 15067 15110 15196 15191 15079 15177 15176 15176 15176 15176 15175 15558 15659 15592 15597 15671 15696 15529 15409 15409 15338 15267 15276 15257 15139 15333 15384 15476 15438 15296 15162 15063 15003 14915 14799 14723 14701 14639 14489 14290 14090 13973 13858 13903 13851 13911 13922 13864 13795 13774 13788 13709 13765 13660 13777 13754 13645 13557 13418 13247 13086 13059 13052 13023 13058 13131 13194 13176 13262 13098 12877 12783 12807 12756 12796 12856 12812 12901 13081 13242 13410 13435 13551 13548 13680 13667 13697 13664 13715 13680 13808 13753 13723 13847 13883 13944 14048 14102 14206 14257 14146 14164 14056 14052 13964 14113 14148 14279 14351 14311 14349 14435 14447 14444 14568 14573 14526 14652 14752 14767 14771 14818 14917 14937 14948 15062 15231 15197 15172 15165 15165 15146 15125 15109 15296 15340 15443 15721 15862 15828 15872 15975 16169 16254 16381 16607 16774 17015 17193 17358 17604 17680 17754 17890 18153 18354 18485 18413 18312 18434 18432 18374 18328 18339 18433 18455 18524 18498 18454 18439 18342 18338 18358 18251 18137 18148 18109 18144 18201 18069 18045 18002 18066 18100 18174 18138 18043 18010 17815
12094 12100 12075 12140 12087 12278 12420 12489 12560 12614 12715 12887 13048 13286 13612 13783 13956 14031 14207 14313 14389 14506 14510 14563 14710 14743 14847 14977 15016 14948 14966 15005 15084 15084 14974 14842 14640 14698 14636 14632 14626 14757 14932 15020 15032 14973 14997 15056 15117 15170 15135 15086 14932 14829 14748 14671 14658 14561 14428 14402 14431 14391 14395 14462 14433 14584 14853 14891 15038 15172 15232 15249 15189 15180 15179 15179 15179 15178 15170 15585 15722 15671 15738 15807 15753 15586 15533 15416 15394 15298 15269 15265 15189 15318 15354 15362 15413 15257 15067 15007 14909 14833 14691 14692 14665 14631 14480 14250 14100 13958 13900 13826 13645 13755 13791 13771 13697 13605 13624 13671 13739 13647 13673 13639 13533 13401 13346 13091 12945 12929 12947 13067 13137 13132 13163 13254 13239 13053 12899 12858 12794 12781 12785 12771 12773 12984 13073 13217 13484 13610 13653 13703 13711 13564 13541 13624 13615 13677 13776 13773 13725 13711 13749 13919 13991 14073 14187 14215 14174 14183 14072 14060 14010 14123 14213 14244 14315 14260 14311 14448 14468 14479 14578 14541 14505 14571 14728 14835 14889 14880 14921 14931 15009 15110 15109 15175 15153 15142 15142 15142 15122 15109 15385 15508 15532 15688 15767 15846 15806 15992 16104 16232 16384 16543 16752 17062 17377 17471 17693 17783 17888 18003 18184 18336 18535 18517 18455 18492 18426 18360 18325 18392 18417 18394 18459 18431 18419 18325 18292 18381 18376 18258 18215 18234 18163 18161 18149 18052 17981 18018 18122 18122 18108 17937 17876 17924 17866
12040 12102 12196 12214 12208 12423 12480 12650 12747 12821 12919 13064 13100 13394 13656 13810 14008 14148 14200 14322 14542 14559 14589 14629 14718 14777 14916 15054 15052 15044 15044 15158 15187 15121 15009 14863 14706 14641 14556 14677 14654 14734 14902 14912 14952 14888 14880 14998 15123 15002 15001 14957 14861 14765 14679 14658 14542 14491 14536 14526 14462 14406 14378 14494 14577 14700 14819 14931 15034 15114 15178 15240 15195 15185 15185 15185 15185 15181 15463 15626 15733 15682 15716 15846 15857 15721 15538 15405 15319 15339 15254 15261 15334 15402 15461 15476 15470 15387 15155 15055 14979 14979 14879 14775 14628 14613 14483 14330 14281 14207 14105 13881 13729 13785 13879 13815 13643 13528 13559 13599 13716 13615 13667 13566 13508 13370 13326 13162 12938 12871 12868 13035 13160 13160 13214 13220 13158 13093 12941 12852 12815 12859 12852 12793 12803 12995 13123 13223 13475 13591 13622 13679 13772 13604 13595 13670 13657 13694 13743 13792 13795 13774 13894 13898 13982 14099 14152 14226 14207 14105 14090 14022 13999 14102 14211 14233 14300 14311 14328 14389 14482 14526 14585 14502 14417 14585 14628 14776 14840 14889 14999 14971 14992 15087 15122 15165 15144 15134 15128 15128 15117 15108 15106 15442 15610 15746 15685 15833 15823 16014 16163 16338 16457 16628 16769 17054 17265 17428 17570 17682 17791 17903 18026 18190 18387 18361 18464 18498 18383 18362 18400 18446 18367 18308 18382 18436 18411 18324 18351 18342 18415 18266 18272 18187 18150 18166 18157 18046 17981 18073 18160 18103 17967 17943 17883 17936 17864
12078 12163 12278 12354 12309 12477 12654 12774 12822 13013 13140 13232 13244 13539 13718 13853 14088 14227 14296 14470 14631 14679 14738 14730 14741 14902 15029 15047 15111 15011 15020 15163 15250 15094 14962 14783 14708 14636 14590 14669 14636 14743 14849 14861 14846 14903 14892 14950 15052 14962 14932 14813 14736 14727 14624 14510 14516 14505 14520 14567 14620 14473 14455 14536 14688 14724 14762 14852 15045 15148 15167 15229 15207 15195 15195 15195 15195 15183 15470 15604 15811 15779 15807 15916 15959 15737 15569 15467 15328 15342 15297 15301 15354 15482 15550 15555 15573 15454 15251 15114 15042 15055 14958 14822 14567 14616 14546 14441 14358 14249 14193 13991 13861 13879 13882 13759 13567 13542 13530 13641 13702 13597 13597 13609 13529 13362 13306 13156 12918 12873 12837 12964 13076 13101 13169 13179 13142 13018 13016 12844 12766 12773 12811 12706 12728 12885 13121 13270 13531 13487 13534 13626 13765 13677 13710 13797 13779 13785 13805 13779 13873 13865 13937 13949 13922 14022 14128 14103 14128 14199 14187 14098 14019 14165 14245 14226 14217 14306 14377 14454 14535 14577 14509 14469 14318 14475 14531 14570 14678 14830 15028 15045 15085 15065 15113 15154 15130 15122 15116 15116 15116 15109 15108 15535 15766 15775 15719 15781 15845 16023 16123 16362 16579 16778 16855 16991 17253 17333 17487 17637 17667 17797 17848 18026 18211 18248 18359 18450 18443 18442 18422 18414 18352 18336 18366 18383 18409 18402 18516 18435 18373 18259 18248 18134 18075 18177 18189 18027 17991 18088 18129 18041 17912 17914 17977 17953 17823
12059 12184 12274 12299 12422 12625 12792 12899 12863 13109 13312 13303 13406 13681 13883 14015 14249 14353 14504 14527 14683 14685 14794 14854 14920 14922 15040 15120 15059 15047 15024 15118 15216 15102 15020 14802 14669 14693 14705 14706 14656 14692 14714 14792 14768 14809 14756 14879 15020 14878 14923 14766 14721 14723 14671 14581 14564 14547 14588 14577 14590 14518 14582 14672 14733 14786 14909 14927 15105 15067 15096 15061 15212 15205 15205 15205 15205 15186 15638 15745 15927 15869 15911 15984 15944 15773 15598 15464 15423 15412 15397 15418 15394 15518 15698 15708 15781 15638 15476 15254 15172 15137 14944 14804 14655 14653 14624 14551 14443 14371 14337 14225 14031 13973 13925 13786 13609 13604 13647 13620 13644 13610 13677 13627 13500 13283 13126 12974 12811 12874 12805 12917 12984 13063 13007 12977 13014 12930 12869 12853 12798 12774 12673 12685 12637 12795 13033 13276 13555 13489 13526 13593 13715 13753 13776 13810 13737 13825 13833 13812 13881 13971 13925 13896 13925 13957 13998 14012 14168 14188 14233 14159 14113 14092 14121 14160 14099 14181 14180 14326 14479 14417 14366 14355 14228 14409 14580 14601 14648 14804 14966 15011 15142 15131 15129 15167 15117 15112 15110 15112 15112 15112 15112 15130 15762 15735 15758 15794 15857 16003 16199 16384 16597 16702 16793 16917 17044 17283 17419 17597 17661 17682 17804 17925 18024 18172 18260 18343 18380 18382 18441 18451 18387 18348 18475 18455 18470 18434 18478 18395 18323 18308 18262 18217 18093 18174 18205 18108 18144 18120 18103 17975 17933 17909 17913 17940 17835
12078 12255 12377 12374 12439 12599 12855 12965 13031 13281 13437 13466 13606 13751 13982 14240 14444 14600 14697 14702 14713 14774 14849 14976 14986 15035 15134 15127 15106 15079 15083 15197 15200 15029 14963 14787 14675 14747 14711 14677 14637 14707 14657 14690 14678 14746 14720 14828 15012 14852 14800 14700 14634 14601 14693 14682 14570 14618 14548 14578 14571 14613 14611 14659 14694 14890 14972 15037 15123 15086 14971 14998 15226 15221 15221 15221 15221 15187 15748 15853 16060 15943 15933 15959 16028 15886 15666 15532 15507 15515 15537 15500 15360 15502 15743 15873 15916 15788 15625 15501 15296 15155 15045 14887 14700 14665 14627 14659 14575 14480 14447 14315 14237 14086 14046 13826 13653 13682 13670 13707 13708 13681 13658 13481 13357 13139 12938 12853 12740 12837 12902 12936 13016 13044 12967 12907 12959 12903 12823 12823 12726 12696 12613 12597 12627 12807 13070 13283 13488 13514 13589 13605 13706 13738 13741 13790 13786 13858 13928 13984 13991 13990 14010 13944 13927 13950 13987 13997 14098 14182 14249 14194 14259 14143 14027 13984 14012 14071 14093 14231 14355 14320 14347 14245 14240 14377 14550 14613 14633 14827 14969 15122 15302 15195 15208 15137 15125 15110 15108 15123 15123 15123 15125 15148 15748 15680 15692 15827 15859 16088 16242 16392 16644 16755 16806 16888 16950 17178 17343 17419 17591 17711 17828 17917 17898 18023 18176 18313 18436 18423 18472 18408 18319 18426 18547 18568 18569 18590 18551 18419 18389 18354 18274 18181 18199 18176 18226 18163 18205 18117 18072 17943 17877 17904 17838 17883 17802
12188 12352 12448 12454 12557 12721 12847 12957 13038 13322 13408 13552 13797 13920 14121 14426 14702 14817 14842 14886 14822 14868 14884 14949 14978 14976 15102 15135 15193 15150 15194 15264 15255 15223 15157 14976 14814 14858 14821 14678 14666 14650 14684 14736 14783 14850 14872 15008 15058 14924 14913 14868 14760 14690 14664 14583 14515 14534 14528 14544 14688 14668 14666 14653 14710 14831 14941 14982 15095 15089 14982 15059 15240 15240 15240 15240 15240 15626 15767 15924 16095 16068 15970 15961 16005 15862 15718 15624 15518 15529 15615 15510 15470 15609 15707 15770 15857 15845 15662 15559 15380 15247 15144 14969 14834 14712 14690 14573 14508 14385 14335 14294 14255 14090 14060 13872 13707 13662 13670 13581 13534 13509 13489 13394 13243 12998 12813 12773 12786 12795 12884 12918 12927 12854 12826 12875 12909 12811 12789 12782 12812 12730 12602 12615 12751 12920 13008 13189 13347 13474 13566 13686 13757 13807 13797 13883 13841 13866 13912 14002 13962 13965 14061 13990 13942 13988 14105 14137 14273 14183 14206 14246 14376 14178 14044 13997 14107 14118 14235 14263 14242 14238 14294 14263 14221 14413 14506 14707 14773 14956 15082 15145 15336 15264 15260 15176 15219 15245 15108 15133 15133 15133 15133 15158 15673 15691 15787 15881 15831 16123 16293 16543 16695 16747 16796 16836 16923 17096 17293 17423 17602 17638 17775 17897 17902 18085 18230 18329 18377 18419 18403 18481 18437 18412 18543 18561 18565 18530 18451 18494 18431 18365 18322 18294 18235 18169 18213 18258 18307 18182 18079 17926 17899 17875 17786 17837 17858
12358 12490 12607 12648 12750 12809 12948 13025 13166 13368 13495 13646 13923 14082 14295 14576 14865 14936 14907 14951 14917 14912 14934 14930 14905 14906 15030 15178 15220 15255 15269 15240 15306 15296 15264 15136 14896 14937 14892 14795 14727 14674 14702 14822 14918 14947 14973 15127 15186 15038 15017 14886 14854 14795 14690 14580 14445 14476 14551 14558 14683 14668 14780 14738 14756 14866 14887 15005 15047 15041 14984 15012 15262 15262 15262 15262 15262 15655 15794 15945 16096 16095 16046 15960 15961 15877 15721 15677 15563 15653 15709 15708 15698 15785 15771 15895 15926 15854 15686 15510 15437 15301 15172 15011 14844 14820 14671 14584 14542 14408 14317 14294 14288 14175 14140 13944 13766 13757 13667 13496 13411 13302 13295 13230 13175 12982 12817 12817 12770 12811 12770 12928 12961 12797 12743 12778 12762 12774 12788 12800 12817 12781 12679 12739 12852 12959 13058 13142 13301 13423 13535 13700 13760 13924 13981 13965 13875 13903 13943 13968 14039 14034 14099 13915 13846 13969 14120 14274 14353 14266 14280 14369 14423 14222 14072 14088 14149 14162 14278 14232 14228 14351 14363 14276 14288 14379 14460 14688 14803 15010 15120 15244 15285 15283 15188 15163 15211 15339 15110 15151 15161 15161 15161 15177 15224 15603 15787 15855 15861 16125 16276 16552 16751 16749 16757 16883 16950 17103 17329 17416 17584 17705 17793 17791 17906 18039 18194 18274 18347 18286 18308 18430 18533 18461 18489 18476 18495 18494 18480 18437 18452 18396 18312 18306 18284 18252 18192 18279 18350 18221 18103 17967 17917 17860 17852 17871 17837
12383 12479 12564 12640 12793 12939 12989 13101 13311 13526 13633 13829 14076 14222 14411 14610 14925 14931 14981 15003 15048 15052 14934 14920 14952 14951 15088 15180 15341 15464 15456 15444 15492 15440 15366 15273 15040 15083 14927 14878 14861 14849 14839 14960 15014 15032 15002 15065 15253 15114 15075 15003 14906 14766 14700 14534 14449 14496 14498 14596 14646 14712 14693 14749 14731 14788 14887 14988 15031 15041 15040 15355 15288 15288 15288 15288 15277 15764 15944 15966 16141 16067 16070 15964 15900 15814 15698 15644 15534 15694 15689 15699 15796 15788 15827 15944 15934 15796 15715 15595 15552 15473 15265 15168 15071 14906 14741 14600 14547 14502 14430 14297 14349 14250 14086 13948 13828 13671 13615 13435 13228 13208 13132 13117 12983 12897 12868 12848 12777 12741 12798 12921 12902 12779 12781 12713 12693 12737 12836 12890 12839 12798 12782 12817 12849 13006 13056 13141 13343 13407 13577 13724 13802 13877 14015 14016 13985 13967 14049 14052 14020 14066 14004 13901 13880 13982 14170 14297 14413 14395 14375 14439 14373 14274 14083 14049 14128 14093 14169 14200 14155 14251 14258 14289 14345 14390 14569 14654 14894 14961 15057 15139 15225 15150 15193 15230 15171 15288 15375 15168 15186 15186 15186 15186 15230 15549 15777 15806 15932 16175 16372 16574 16713 16748 16761 16843 16886 17088 17280 17374 17530 17582 17715 17740 17782 18051 18199 18276 18238 18259 18288 18442 18486 18530 18578 18496 18484 18469 18537 18525 18566 18487 18325 18302 18331 18255 18324 18302 18294 18168 18135 18125 18020 17931 17867 17863 17897
12414 12430 12551 12720 12860 12920 13040 13253 13450 13557 13752 13908 14167 14427 14594 14773 15054 15067 15122 15151 15260 15148 15013 14955 14988 15095 15171 15336 15583 15576 15647 15710 15669 15610 15572 15382 15234 15195 15066 15100 15030 15042 14989 14948 15000 15071 15045 15118 15209 15127 15082 15039 14931 14831 14738 14556 14387 14447 14463 14571 14627 14684 14691 14602 14634 14682 14810 14869 14993 15060 15003 15380 15321 15321 15321 15321 15285 15926 16050 16075 16202 16114 16116 16010 15843 15722 15577 15567 15513 15683 15750 15826 15818 15858 15983 16005 15922 15897 15766 15701 15749 15543 15374 15291 15236 15073 14846 14682 14531 14556 14460 14354 14334 14228 14153 13926 13768 13668 13552 13406 13168 13137 13075 12958 12839 12898 12866 12762 12749 12758 12772 12843 12790 12805 12712 12747 12727 12761 12869 12941 12971 12941 12815 12805 12914 12931 13031 13219 13366 13517 13611 13702 13867 14004 14085 14080 14090 14136 14180 14138 14096 14119 14032 14027 14020 14167 14279 14412 14440 14409 14353 14418 14371 14204 14096 14118 14041 14096 14153 14063 14083 14186 14281 14322 14284 14450 14660 14722 14878 14942 14948 15016 15153 15157 15263 15276 15219 15321 15408 15178 15209 15209 15209 15209 15240 15562 15662 15826 15946 16155 16353 16428 16606 16598 16717 16874 16944 17044 17132 17311 17495 17515 17624 17633 17756 17969 18081 18155 18181 18215 18312 18356 18513 18538 18604 18630 18578 18516 18534 18559 18677 18557 18368 18357 18287 18365 18394 18423 18365 18239 18135 18126 18154 18033 17981 17944 17999
12502 12672 12822 12851 12972 13139 13278 13405 13556 13811 13909 14088 14306 14490 14706 14871 15115 15160 15243 15335 15364 15268 15135 15071 15179 15149 15228 15377 15587 15536 15622 15603 15688 15581 15492 15394 15175 15225 15146 15109 15083 15113 15119 15021 15059 15053 15193 15233 15259 15136 15017 15001 14968 14836 14834 14681 14439 14578 14636 14693 14744 14726 14727 14720 14715 14813 14956 14958 15041 15019 15059 15393 15354 15354 15354 15354 15302 15921 16036 16244 16367 16306 16310 16172 15898 15858 15735 15621 15606 15754 15861 15853 15894 16018 16057 16046 16089 15970 15879 15797 15845 15644 15386 15292 15138 15093 14932 14747 14632 14604 14511 14353 14316 14179 14007 13785 13587 13517 13406 13215 13096 13033 13040 12845 12776 12720 12696 12691 12615 12673 12701 12777 12780 12732 12775 12681 12726 12769 12745 12769 12836 12839 12787 12765 12902 12925 12945 13259 13378 13611 13703 13822 13955 14044 14064 14068 14142 14213 14247 14213 14161 14165 14063 14045 14087 14120 14185 14277 14400 14354 14342 14390 14423 14337 14148 14117 14071 14160 14194 14079 14036 14164 14195 14283 14263 14511 14649 14740 14825 14899 14898 15040 15080 15139 15249 15324 15331 15355 15388 15199 15232 15232 15232 15232 15245 15602 15686 15862 15986 16083 16217 16347 16568 16675 16848 16865 16935 17107 17297 17341 17497 17611 17707 17739 17714 17870 18036 18139 18126 18116 18176 18374 18539 18567 18556 18433 18447 18371 18364 18415 18494 18466 18352 18360 18401 18424 18412 18473 18430 18350 18245 18248 18261 18097 18049 18041 18049
12573 12730 12992 13044 13186 13362 13471 13595 13775 14041 14184 14306 14409 14552 14772 15004 15276 15357 15397 15396 15348 15404 15347 15265 15274 15348 15330 15491 15590 15534 15503 15611 15723 15561 15479 15403 15232 15195 15190 15214 15140 15146 15165 15095 15027 15089 15280 15366 15378 15241 15043 15037 14942 14817 14816 14695 14567 14648 14774 14841 14959 14867 14792 14781 14865 14973 14982 15021 15082 15051 15115 15419 15392 15392 15392 15392 15312 16046 16132 16288 16530 16490 16379 16239 15984 15869 15873 15721 15655 15810 15922 15959 16018 16058 16065 16069 16188 16007 15936 15854 15827 15605 15346 15198 15154 15065 14995 14889 14750 14662 14455 14376 14303 14012 13850 13716 13490 13377 13255 13166 13133 13028 12888 12752 12604 12611 12585 12579 12472 12478 12509 12601 12743 12709 12722 12706 12607 12635 12723 12719 12791 12826 12739 12762 12777 12849 12953 13271 13518 13654 13841 13901 13981 13936 14005 14046 14209 14249 14223 14221 14348 14260 14145 14142 14077 14099 14180 14325 14438 14420 14347 14352 14452 14329 14215 14139 14177 14242 14259 14084 14031 14093 14154 14160 14272 14541 14708 14736 14889 14949 14906 15032 15034 15189 15346 15383 15382 15355 15270 15207 15239 15246 15246 15246 15251 15268 15646 15880 15988 16126 16155 16359 16510 16679 16869 16892 16987 17115 17344 17473 17529 17675 17749 17692 17717 17892 17993 18072 18105 18182 18168 18359 18487 18423 18463 18348 18205 18229 18215 18264 18364 18404 18391 18361 18390 18477 18467 18496 18435 18408 18441 18438 18351 18223 18152 18100 18057
12712 12874 13035 13226 13370 13535 13667 13756 13931 14125 14344 14452 14491 14746 14985 15156 15435 15384 15474 15510 15499 15452 15431 15379 15405 15458 15391 15492 15534 15474 15496 15607 15712 15599 15424 15372 15211 15177 15148 15235 15309 15186 15145 15032 14971 15130 15250 15355 15369 15273 15080 15082 14991 14863 14869 14796 14678 14701 14820 14932 15059 14931 14874 14981 15017 15042 14951 15119 15160 15175 15244 15431 15431 15431 15431 15431 16156 16200 16321 16460 16652 16510 16348 16188 16077 15969 15992 15925 15803 15904 15979 15963 15971 16145 16163 16239 16301 16203 16048 15912 15755 15652 15443 15305 15134 15112 15012 14911 14745 14601 14414 14355 14216 13966 13800 13624 13417 13268 13220 13093 13068 12928 12759 12622 12510 12595 12559 12573 12457 12454 12396 12472 12556 12585 12682 12651 12636 12627 12740 12821 12787 12858 12749 12718 12792 12814 12967 13206 13492 13650 13845 13892 14037 13964 13988 14170 14261 14311 14302 14389 14432 14317 14203 14136 14128 14156 14166 14229 14290 14392 14457 14357 14419 14338 14238 14251 14220 14178 14222 14184 14107 14184 14189 14253 14291 14552 14700 14703 14803 14908 14943 14967 15013 15141 15386 15403 15332 15354 15322 15251 15250 15258 15258 15258 15258 15266 15625 15848 15941 16094 16177 16328 16567 16792 16950 16961 16989 17090 17300 17421 17553 17556 17673 17659 17640 17757 17885 18013 18064 18179 18238 18350 18333 18293 18254 18256 18149 18143 18161 18269 18288 18339 18313 18349 18450 18410 18501 18493 18421 18453 18493 18469 18385 18238 18135 18121 18039
12802 12948 13204 13428 13653 13664 13789 14004 14127 14308 14519 14577 14690 14989 15196 15357 15494 15483 15480 15586 15675 15524 15501 15569 15516 15451 15367 15425 15443 15516 15501 15559 15595 15464 15450 15371 15302 15230 15222 15319 15381 15313 15198 15119 15038 15209 15270 15314 15407 15245 15175 15173 15129 15011 14900 14853 14909 14910 14983 15064 15105 15085 14980 15057 15059 15102 15049 15196 15258 15318 15415 15467 15467 15467 15467 15467 16303 16401 16486 16650 16794 16610 16387 16313 16213 16192 16114 16032 15957 16019 16015 15973 15982 16158 16214 16290 16331 16258 16089 15963 15812 15731 15543 15313 15205 15000 14908 14925 14826 14665 14457 14210 14021 13853 13645 13495 13331 13228 13085 13042 13085 12912 12680 12626 12506 12539 12518 12502 12382 12420 12380 12394 12475 12606 12615 12637 12703 12737 12788 12816 12801 12832 12799 12685 12686 12874 12992 13206 13525 13615 13800 14008 14102 14115 14100 14220 14294 14388 14395 14424 14455 14425 14334 14200 14193 14174 14142 14246 14244 14362 14450 14406 14453 14303 14277 14309 14273 14285 14277 14193 14134 14200 14302 14338 14283 14473 14588 14773 14845 14844 14963 14996 15028 15174 15306 15363 15349 15362 15330 15258 15255 15262 15262 15262 15262 15267 15726 15881 15940 16067 16259 16422 16659 16857 16950 17033 17081 17198 17243 17332 17464 17511 17624 17586 17655 17795 17887 18047 18096 18208 18234 18282 18218 18163 18155 18066 18084 18064 18056 18124 18202 18174 18257 18313 18429 18383 18463 18504 18519 18512 18507 18530 18451 18319 18230 18062 17956
12953 13179 13433 13553 13768 13814 13979 14113 14276 14356 14531 14739 14884 15138 15259 15477 15617 15606 15635 15607 15673 15681 15643 15697 15711 15600 15584 15516 15549 15503 15518 15548 15588 15579 15444 15485 15359 15328 15351 15391 15376 15291 15242 15153 15133 15227 15290 15350 15523 15328 15293 15238 15205 15140 15040 15025 14948 14869 14920 15034 15050 15103 15045 15049 15041 15157 15193 15317 15445 15410 15508 15502 15502 15502 15502 15502 16340 16399 16565 16631 16867 16757 16569 16450 16414 16434 16342 16172 16118 16108 16163 16114 16093 16131 16191 16351 16436 16275 16086 15933 15850 15694 15426 15280 15097 14984 14807 14776 14751 14604 14439 14189 14123 13849 13690 13582 13406 13332 13111 13118 13041 12843 12691 12624 12534 12558 12494 12366 12218 12241 12293 12294 12459 12549 12608 12588 12633 12737 12754 12821 12797 12814 12786 12690 12632 12867 13027 13239 13556 13705 13857 14035 14112 14160 14329 14402 14548 14557 14702 14665 14729 14662 14496 14368 14215 14282 14309 14296 14308 14292 14307 14407 14467 14266 14231 14203 14103 14220 14209 14169 14100 14181 14310 14289 14313 14492 14555 14717 14762 14899 14939 15001 15017 15217 15342 15311 15236 15290 15352 15282 15265 15267 15266 15266 15266 15266 15264 15811 15862 16081 16259 16441 16676 16717 16912 17052 17044 17185 17243 17320 17328 17464 17650 17620 17789 17900 17954 18001 18048 18129 18152 18155 18156 18046 18076 18126 18186 18172 18099 18228 18291 18268 18282 18329 18362 18372 18452 18522 18534 18453 18469 18486 18445 18393 18305 18104 17993
13143 13403 13674 13780 13893 14066 14164 14231 14392 14559 14642 14793 14962 15198 15360 15494 15686 15750 15703 15704 15733 15787 15801 15895 15965 15778 15711 15695 15642 15568 15543 15528 15522 15583 15558 15516 15433 15463 15409 15352 15383 15248 15161 15302 15322 15383 15330 15463 15630 15508 15332 15387 15369 15195 15063 15043 15035 14931 14950 15027 15073 15080 15127 15183 15142 15250 15428 15480 15551 15596 15599 15533 15533 15533 15533 15533 16301 16456 16533 16685 16940 16860 16664 16618 16611 16586 16478 16429 16315 16348 16281 16277 16262 16254 16257 16436 16517 16250 16100 15988 15798 15648 15404 15127 14948 14806 14722 14598 14594 14433 14367 14189 14140 13954 13642 13533 13441 13331 13169 13122 13104 12848 12651 12601 12550 12501 12457 12242 12049 12031 12138 12267 12376 12393 12525 12553 12678 12665 12613 12705 12725 12736 12800 12706 12688 12949 13179 13381 13619 13779 13996 14058 14244 14342 14535 14643 14684 14731 14902 14917 14953 14801 14620 14468 14350 14429 14395 14410 14305 14270 14238 14234 14359 14265 14150 14097 14034 14143 14154 14179 14106 14266 14300 14276 14283 14377 14470 14620 14774 14941 14986 15056 15039 15217 15296 15255 15199 15245 15371 15296 15249 15267 15264 15262 15262 15262 15256 15244 15892 15981 16178 16413 16569 16661 16843 16975 17031 17028 17146 17230 17280 17440 17571 17656 17860 17935 18008 18048 18051 18036 17974 18073 18108 18044 18050 18195 18260 18222 18263 18251 18264 18295 18403 18405 18399 18435 18556 18445 18457 18466 18353 18399 18367 18329 18374 18195 18058
13402 13657 13869 13925 14110 14109 14200 14346 14454 14548 14717 14877 15030 15311 15565 15665 15836 15844 15792 15759 15847 15903 15863 15960 16103 15922 15862 15798 15700 15673 15615 15650 15590 15597 15506 15605 15555 15547 15545 15370 15342 15296 15181 15220 15329 15463 15416 15503 15593 15523 15474 15443 15428 15336 15223 15099 15110 14975 14947 14995 15122 15134 15132 15173 15317 15396 15460 15523 15627 15739 15748 15563 15563 15563 15563 15563 16333 16535 16672 16753 16956 16874 16849 16879 16763 16657 16554 16503 16391 16417 16364 16292 16346 16372 16381 16434 16446 16313 16107 15971 15877 15720 15425 15142 14826 14734 14666 14617 14568 14482 14302 14114 14089 13863 13670 13594 13456 13318 13212 13149 13011 12765 12621 12564 12446 12360 12302 12122 11920 11872 11965 12132 12155 12313 12515 12487 12602 12634 12631 12674 12753 12761 12841 12777 12816 13090 13324 13572 13775 13901 14078 14191 14342 14522 14630 14739 14702 14903 15064 15059 15030 14952 14820 14621 14552 14543 14440 14502 14396 14280 14201 14144 14167 14064 14003 14056 14036 14122 14089 14103 14018 14087 14211 14191 14242 14279 14337 14502 14578 14774 14876 15011 15055 15196 15313 15309 15218 15184 15260 15283 15262 15266 15263 15257 15257 15257 15252 15240 15847 15913 16080 16321 16444 16546 16691 16875 16951 16982 17039 17121 17287 17428 17561 17803 17921 17978 18005 18055 18069 18020 17979 18068 18002 18065 18080 18189 18209 18243 18163 18112 18171 18214 18318 18435 18420 18503 18509 18426 18356 18414 18332 18341 18451 18426 18376 18333 18266
13689 13899 14100 14128 14276 14289 14341 14493 14612 14701 14905 15070 15169 15511 15732 15860 16041 15916 15911 15910 15933 15989 16042 16111 16252 16136 15981 15915 15787 15828 15778 15755 15662 15574 15574 15635 15700 15599 15581 15356 15253 15227 15179 15300 15356 15510 15596 15634 15606 15643 15572 15447 15403 15365 15297 15234 15077 15036 14991 15035 15133 15174 15209 15264 15387 15518 15547 15660 15827 15854 15887 15591 15591 15591 15591 15591 16331 16605 16813 16957 17094 17068 17047 17041 16996 16856 16703 16610 16458 16509 16448 16399 16320 16424 16460 16435 16495 16323 16181 16061 15895 15716 15422 15173 14816 14796 14684 14599 14602 14459 14249 14093 14062 13933 13812 13571 13377 13243 13207 13092 12906 12690 12594 12524 12462 12281 12203 11937 11746 11781 11862 11974 12030 12210 12417 12517 12558 12719 12771 12778 12861 12803 12868 12934 12895 13226 13482 13625 13888 13923 14071 14223 14446 14570 14736 14815 14833 14940 15137 15136 15224 15073 15032 14772 14634 14596 14533 14526 14400 14273 14236 14088 14058 14031 13938 13990 14026 14003 14091 14027 13998 14053 14040 14086 14159 14244 14276 14435 14484 14643 14879 14991 15191 15236 15283 15211 15222 15203 15222 15185 15162 15269 15262 15253 15251 15251 15249 15241 15242 15875 16103 16141 16280 16380 16532 16678 16745 16933 17003 17163 17280 17412 17590 17827 17983 17925 17902 17896 17977 17907 17957 17994 17952 18040 18085 18175 18273 18232 18097 18104 18111 18220 18354 18410 18400 18462 18436 18351 18341 18428 18429 18383 18448 18425 18463 18462 18363
