19566 19573 19632 19688 19734 19706 19657 19577 19644 19613 19505 19502 19575 19537 19504 19541 19483 19597 19653 19579 19653 19627 19588 19464 19521 19424 19417 19355 19257 19286 19204 19034 18925 18814 18838 18895 18878 18830 18864 18801 18855 18908 18865 18878 18842 18984 19059 19112 19078 19100 19044 19047 19108 19105 19058 18999 19016 18909 18841 18831 18783 18729 18755 18863 19026 18937 19239 19241 19241 19241 19241 19243 18870 18783 18728 18596 18418 18350 18139 17996 17983 18039 18094 18109 18070 17985 17779 17759 17645 17705 17908 17908 17976 17943 17958 17993 17935 18042 18106 18041 18031 18049 17957 17967 18100 17987 17994 17919 17925 17891 17782 17724 17753 18073 18272 18378 18507 18682 18809 18986 19148 19145 19218 19313 19436 19514 19597 19597 19657 19488 19421 19272 19176 18811 18607 18346 18123 18120 18038 17895 17825 17654 17622 17422 17285 17281 17313 17327 17280 17203 17086 16931 16794 16489 16313 16137 15999 15819 15724 15481 15301 15183 15133 15080 15048 14989 14772 14779 14733 14692 14701 14554 14349 14382 14451 14381 14352 14359 14335 14267 14303 14233 14092 13994 13864 13713 13716 13455 13302 13031 12744 12520 12341 12271 12215 12166 12190 12220 12160 12244 12316 12424 12580 12762 12859 12959 13033 13191 13339 13439 13469 13383 13411 13354 13128 13126 13092 13163 13250 13767 13906 13906 13906 13906 13989 13217 13154 13096 13127 12936 12766 12770 12737 12626 12459 12523 12524 12384 12174 12134 12033 11952 11800 11840 11784 11811 11893 11934 11963 11956 11845 11913 11983 11921 11786 11850 11808
19498 19491 19540 19720 19812 19867 19832 19680 19612 19614 19697 19731 19784 19739 19646 19677 19622 19692 19719 19721 19696 19697 19595 19480 19446 19520 19543 19498 19413 19386 19297 19276 19141 18997 18919 18920 18879 18941 18885 18793 18798 18860 18905 18906 18802 18934 18998 19110 19120 19094 19123 19153 19168 19247 19206 19127 19019 18814 18725 18746 18650 18747 18811 18828 18946 19145 19214 19223 19223 19223 19235 19251 18878 18776 18745 18630 18454 18344 18256 18128 18103 18103 18219 18189 18174 18050 17838 17836 17758 17845 18034 18083 18196 18089 18037 17967 17956 18112 18203 18160 18229 18284 18215 18260 18264 18248 18320 18294 18194 18094 18030 18010 17982 18247 18433 18572 18654 18817 19109 19191 19353 19313 19297 19414 19445 19565 19602 19557 19634 19599 19523 19399 19177 18914 18723 18528 18270 18226 18173 18065 17886 17767 17657 17627 17479 17453 17494 17368 17353 17238 17103 16978 16800 16631 16428 16223 16066 15941 15703 15445 15220 15187 15136 15108 14982 14956 14843 14847 14854 14731 14730 14625 14402 14436 14399 14410 14447 14402 14434 14396 14387 14309 14206 14098 13877 13753 13703 13499 13362 13048 12715 12503 12224 12182 12200 12063 12050 11975 12004 12131 12201 12369 12567 12655 12760 12905 13001 13158 13381 13523 13542 13460 13451 13417 13320 13267 13338 13322 13416 13829 13962 13986 13986 13986 14012 14128 13312 13130 13061 12993 12866 12800 12827 12680 12643 12599 12620 12506 12271 12176 11982 11937 11843 11894 11819 11893 11986 12010 12048 11984 12007 11987 12075 11987 11819 11780 11766
19535 19556 19644 19669 19796 19846 19810 19808 19786 19742 19783 19842 19878 19805 19718 19657 19706 19622 19643 19692 19617 19552 19474 19450 19327 19391 19353 19395 19289 19242 19248 19254 19262 19171 19008 19011 18929 18895 18934 18865 18909 18844 18911 18904 18933 18942 18958 18972 18952 19018 19050 19050 19154 19106 19107 19079 18970 18890 18830 18715 18627 18784 18857 18904 18942 19095 19178 19178 19178 19178 19228 18840 18791 18789 18673 18598 18511 18415 18350 18311 18242 18214 18321 18353 18364 18259 18011 18043 18049 17989 18106 18137 18316 18144 18123 18132 18139 18221 18283 18316 18280 18359 18339 18428 18415 18358 18466 18417 18425 18339 18274 18303 18238 18479 18597 18749 18826 19017 19276 19363 19484 19437 19397 19457 19532 19668 19642 19677 19716 19647 19587 19494 19327 19121 18858 18755 18564 18533 18412 18216 18115 18046 17891 17703 17524 17617 17556 17446 17414 17331 17152 17064 16871 16608 16380 16177 16010 15811 15541 15295 15098 15075 15063 14980 14880 14830 14752 14718 14676 14707 14792 14602 14570 14455 14459 14496 14432 14453 14377 14331 14382 14297 14214 14092 13914 13675 13631 13469 13360 13061 12669 12413 12206 12100 12095 12123 12147 12093 12199 12203 12265 12450 12526 12581 12688 12847 13067 13182 13343 13375 13408 13399 13419 13384 13388 13454 13544 13554 13547 13560 13989 14058 14058 14058 14058 14174 13504 13386 13197 13094 13102 13014 12963 12838 12664 12661 12537 12500 12246 12156 12086 11970 11904 11955 11874 11905 12029 12063 12150 12130 12164 12079 12151 12080 11966 11823 11821
19617 19604 19652 19721 19785 19800 19905 19872 19948 19913 19927 19886 19854 19766 19784 19708 19726 19663 19631 19572 19596 19526 19363 19300 19299 19318 19235 19245 19223 19184 19149 19210 19258 19214 19112 19052 19043 18949 18940 18883 18944 18875 18861 18878 18972 18910 18938 18911 18888 18917 19006 19080 19206 19076 19068 18973 19005 18950 18828 18764 18619 18758 18822 18812 18989 19068 19145 19145 19145 19168 19222 18920 18810 18729 18625 18659 18570 18501 18447 18418 18381 18340 18326 18386 18475 18394 18301 18289 18263 18178 18207 18272 18349 18291 18138 18228 18317 18313 18272 18332 18453 18525 18503 18450 18443 18505 18551 18675 18676 18546 18537 18579 18607 18615 18694 18898 19009 19180 19351 19533 19673 19629 19599 19708 19702 19731 19715 19770 19901 19826 19676 19636 19598 19278 19086 18961 18753 18683 18612 18509 18360 18275 18175 17900 17668 17736 17717 17561 17412 17354 17228 17061 16930 16659 16445 16140 15925 15590 15345 15147 14969 14978 14884 14753 14716 14773 14705 14609 14609 14655 14730 14630 14615 14510 14436 14487 14454 14450 14384 14300 14327 14239 14158 13972 13881 13650 13535 13459 13411 13064 12752 12497 12220 12173 12086 12105 12152 12249 12276 12227 12291 12447 12543 12629 12663 12826 13020 13217 13414 13337 13282 13367 13350 13378 13446 13542 13625 13704 13703 13645 14038 14128 14128 14128 14128 14195 13692 13557 13412 13288 13276 13206 13096 12907 12783 12658 12547 12494 12350 12222 12100 12088 12086 12112 12037 12045 12045 12176 12266 12207 12221 12263 12181 12085 12113 11968 11783
19674 19652 19752 19767 19819 19863 20013 20030 20048 20011 19994 20003 19944 19958 19889 19831 19783 19681 19602 19604 19606 19458 19343 19306 19233 19280 19233 19196 19238 19244 19188 19172 19243 19253 19153 19165 19127 19069 19104 18991 18948 18888 18913 18891 18975 18894 18884 18792 18773 18824 19037 19021 19121 18957 18963 18906 18851 18842 18761 18772 18642 18660 18669 18702 18937 19016 19062 19062 19062 19137 19200 18972 18833 18792 18674 18671 18613 18506 18513 18426 18481 18468 18513 18549 18496 18432 18417 18400 18422 18327 18279 18370 18358 18259 18235 18340 18398 18395 18448 18463 18607 18645 18632 18595 18715 18688 18746 18735 18807 18759 18827 18862 18862 18817 18888 19021 19156 19429 19615 19670 19736 19814 19827 19785 19786 19788 19853 19979 20033 19923 19829 19748 19696 19497 19413 19163 18996 18893 18894 18808 18596 18403 18285 18118 17827 17810 17802 17682 17499 17368 17224 17058 16862 16612 16315 16036 15781 15551 15280 15085 14949 14829 14775 14757 14723 14730 14672 14608 14641 14705 14730 14671 14695 14522 14367 14462 14356 14413 14373 14391 14305 14285 14154 13916 13858 13689 13553 13492 13361 13128 12822 12555 12283 12181 12122 12089 12108 12154 12210 12302 12316 12452 12482 12623 12687 12767 13007 13185 13328 13367 13343 13312 13356 13361 13446 13599 13719 13782 13751 13738 14184 14190 14190 14190 14190 14195 13905 13829 13666 13531 13406 13348 13188 12941 12856 12694 12520 12474 12267 12168 12187 12127 12140 12231 12187 12176 12138 12158 12207 12258 12207 12163 12135 12089 12123 11964 11905
19656 19786 19797 19924 19933 19971 20023 20126 20183 20115 20147 20136 20109 20064 20036 19923 19742 19683 19637 19554 19561 19494 19395 19300 19296 19262 19136 19158 19194 19215 19224 19260 19307 19302 19202 19304 19313 19300 19294 19145 19037 19035 18934 18910 18923 18879 18826 18811 18750 18817 19005 18976 19018 18902 18899 18825 18777 18833 18774 18720 18646 18529 18540 18804 18884 18963 18988 18988 19040 19117 19186 18940 18923 18774 18728 18598 18552 18480 18537 18539 18600 18573 18674 18651 18615 18629 18536 18528 18556 18395 18356 18334 18371 18348 18323 18456 18475 18502 18589 18577 18689 18720 18668 18706 18863 18826 18911 18953 19011 19055 19101 19108 19050 19076 19199 19357 19390 19562 19763 19854 19921 19954 20019 19927 19885 19916 20031 20026 20043 19985 19894 19917 19873 19775 19644 19499 19261 19134 19133 18983 18880 18653 18517 18244 18100 17999 17848 17696 17466 17271 17185 17042 16827 16607 16267 15887 15633 15466 15202 15011 14906 14861 14752 14730 14674 14678 14637 14580 14606 14677 14633 14640 14688 14526 14401 14393 14359 14332 14368 14373 14287 14221 14094 13890 13799 13669 13584 13383 13282 13041 12829 12526 12337 12300 12274 12141 12127 12180 12234 12260 12310 12417 12516 12548 12600 12695 12909 13136 13272 13308 13298 13296 13296 13294 13396 13545 13690 13788 13807 13905 14333 14264 14264 14264 14264 14195 14052 13974 13898 13792 13598 13454 13197 12974 12852 12624 12511 12409 12290 12230 12209 12196 12231 12284 12257 12303 12348 12268 12257 12247 12123 12047 12098 12165 12175 12083 12025
19711 19759 19835 19834 19846 19875 19946 20125 20116 20058 19950 19981 20036 19912 19906 19828 19642 19525 19475 19428 19355 19306 19307 19241 19251 19250 19113 19142 19014 19077 19106 19227 19321 19306 19212 19182 19218 19187 19213 19093 18921 18895 18889 18810 18805 18741 18680 18680 18700 18740 18881 18943 18932 18809 18769 18673 18723 18776 18724 18647 18554 18502 18673 18751 18831 18884 18884 18910 18990 19069 18686 18787 18737 18729 18679 18532 18441 18375 18394 18401 18333 18410 18475 18463 18428 18383 18411 18425 18326 18259 18283 18281 18316 18286 18429 18565 18656 18604 18596 18737 18763 18788 18828 18906 19026 19025 18941 18981 18974 18925 19000 18976 19016 18994 19071 19333 19381 19489 19699 19702 19792 19925 19944 19941 19914 19909 20034 20018 20085 20044 19877 19860 19807 19702 19547 19345 19124 18989 19047 18904 18728 18519 18442 18177 18030 17999 17868 17778 17576 17297 17147 17077 16962 16744 16417 16063 15739 15577 15361 15239 15028 14890 14789 14800 14799 14705 14718 14564 14548 14580 14578 14582 14595 14530 14468 14383 14301 14214 14269 14227 14293 14114 13999 13925 13797 13704 13529 13488 13322 13065 12904 12658 12370 12378 12368 12252 12263 12301 12392 12408 12430 12522 12548 12660 12728 12843 12954 13155 13281 13220 13319 13295 13338 13425 13543 13627 13646 13648 13761 14387 14344 14297 14297 14297 14284 14218 14113 14050 13980 13943 13741 13567 13260 13043 12941 12745 12629 12587 12439 12325 12277 12249 12255 12210 12261 12287 12330 12286 12181 12194 12132 12145 12231 12196 12213 12205 12119
19726 19727 19822 19759 19739 19891 19996 20103 20166 19962 19870 19939 19927 19883 19748 19647 19450 19413 19413 19251 19198 19210 19255 19171 19195 19157 19162 19079 18919 19067 19107 19127 19274 19257 19133 19150 19118 19034 19049 18909 18785 18807 18849 18872 18810 18767 18663 18634 18665 18748 18886 18850 18815 18744 18578 18592 18565 18615 18584 18517 18389 18355 18643 18724 18804 18804 18804 18857 18937 18408 18418 18567 18636 18595 18529 18364 18248 18294 18270 18254 18195 18274 18315 18353 18270 18192 18182 18211 18216 18287 18250 18197 18240 18278 18435 18634 18711 18729 18646 18789 18824 18855 18903 18981 19077 19095 18999 18930 18907 18847 18864 18849 18871 18932 19055 19304 19470 19505 19523 19648 19732 19802 19808 19834 19836 19977 20079 20118 20174 20062 19865 19767 19772 19614 19472 19236 18943 18902 18860 18702 18569 18507 18349 18225 18005 17924 17891 17768 17598 17356 17222 17204 17115 16806 16448 16233 15942 15641 15452 15393 15215 15009 14901 14880 14848 14809 14756 14641 14458 14545 14507 14464 14492 14489 14470 14386 14238 14189 14184 14188 14204 14139 14028 13834 13700 13593 13603 13509 13408 13186 12969 12728 12512 12419 12341 12399 12432 12482 12598 12598 12501 12558 12600 12672 12800 12908 13006 13148 13189 13186 13214 13263 13414 13560 13615 13589 13621 13624 13731 14400 14362 14349 14349 14349 14318 14260 14168 14196 14160 14035 13802 13636 13378 13163 12931 12832 12730 12740 12647 12432 12301 12247 12309 12293 12301 12305 12298 12191 12166 12083 12122 12230 12259 12293 12288 12244 12174
19721 19747 19722 19712 19664 19716 19902 19915 20103 19974 19734 19826 19823 19737 19671 19464 19362 19276 19359 19148 19145 19085 19171 19075 19027 19016 19077 19019 18848 19034 19149 19180 19404 19313 19123 19100 18993 18968 18944 18850 18713 18715 18792 18790 18783 18725 18615 18681 18708 18736 18865 18779 18771 18689 18513 18499 18526 18442 18388 18369 18160 18523 18583 18666 18721 18721 18777 18831 18911 18240 18175 18266 18394 18346 18252 18210 18164 18035 18005 17995 18068 18075 18086 18150 18224 18130 18193 18190 18142 18184 18184 18181 18278 18278 18449 18657 18829 18757 18673 18714 18832 18869 18808 18996 19110 18996 18920 18897 18865 18860 18849 18855 18918 18938 18991 19189 19344 19491 19501 19503 19644 19737 19826 19832 19880 19934 20086 20059 20124 19992 19941 19794 19708 19608 19349 19091 18920 18756 18662 18556 18471 18421 18256 18111 18031 17943 17962 17742 17683 17406 17262 17240 17135 16904 16514 16296 16066 15806 15652 15481 15414 15251 15087 14954 14860 14768 14702 14630 14438 14430 14421 14402 14466 14405 14451 14309 14298 14222 14130 14128 14029 14018 13966 13875 13705 13548 13493 13477 13349 13128 12970 12705 12553 12471 12533 12532 12587 12700 12654 12717 12593 12657 12709 12793 12751 12951 13072 13086 13149 13270 13306 13435 13478 13563 13533 13532 13604 13642 14414 14405 14373 14373 14373 14362 14333 14266 14149 14220 14184 13999 13753 13538 13414 13184 13021 12881 12788 12791 12775 12576 12468 12453 12326 12354 12411 12271 12293 12165 12092 12121 12167 12196 12342 12330 12433 12329 12334
19708 19657 19593 19656 19646 19647 19735 19788 19938 19873 19727 19673 19736 19655 19596 19419 19227 19148 19188 19096 18995 18947 19023 18958 18952 18975 18914 18891 18877 19004 19152 19257 19448 19335 19185 19065 18913 18883 18737 18806 18749 18715 18787 18785 18754 18668 18628 18685 18697 18710 18774 18732 18678 18597 18446 18461 18435 18317 18318 18179 18388 18469 18527 18611 18611 18638 18724 18778 18118 18093 18038 18162 18174 18121 18034 18023 18038 17894 17844 17843 17853 17926 17888 18017 18162 18076 18078 17967 17949 18019 18053 18144 18236 18340 18507 18656 18855 18857 18742 18724 18754 18832 18819 19026 19114 19090 18953 18869 18831 18774 18825 18837 18948 18966 18998 19198 19303 19398 19379 19467 19679 19794 19816 19821 19802 19856 20012 20115 20124 20095 20003 19855 19735 19527 19325 19055 18809 18624 18568 18441 18428 18292 18203 18179 18125 17997 17959 17794 17666 17481 17372 17271 17206 16953 16616 16359 16180 16001 15764 15686 15601 15458 15192 15039 14950 14851 14669 14578 14482 14489 14420 14388 14353 14273 14311 14267 14271 14205 14146 14030 13904 13867 13847 13805 13638 13537 13438 13326 13333 13119 12950 12801 12561 12601 12619 12702 12860 12842 12753 12793 12769 12755 12816 12829 12776 12859 13058 13095 13086 13291 13422 13524 13529 13523 13564 13542 13580 13679 14411 14405 14393 14393 14393 14383 14358 14392 14205 14169 14186 13891 13678 13504 13335 13291 13148 13051 12959 12958 12870 12768 12580 12560 12468 12385 12421 12315 12184 12175 12095 12087 12178 12187 12317 12374 12456 12440 12437
19672 19633 19517 19612 19616 19630 19693 19799 19833 19774 19565 19588 19498 19410 19307 19221 19112 19031 18931 18967 18885 18921 18991 18942 18931 18937 18840 18819 18754 19010 19156 19212 19270 19177 19130 19010 18772 18760 18672 18670 18655 18722 18779 18713 18716 18671 18633 18645 18637 18621 18571 18555 18447 18334 18277 18272 18213 18190 18265 18303 18345 18420 18476 18504 18529 18583 18670 18724 18010 17846 17801 17946 17910 17903 17962 17894 17882 17748 17726 17724 17696 17744 17810 17872 17903 17933 17872 17787 17821 17849 18025 18175 18240 18334 18486 18702 18859 18807 18760 18813 18726 18869 18886 18999 19177 19068 18882 18823 18888 18941 18956 18988 19036 19000 19093 19209 19401 19442 19394 19524 19658 19787 19809 19831 19779 19886 20127 20126 20116 20049 19987 19861 19766 19584 19323 19109 18855 18750 18651 18572 18486 18365 18339 18344 18197 18143 18076 17904 17660 17588 17409 17257 17163 16906 16681 16490 16365 16135 16002 15890 15888 15680 15462 15346 15276 15030 14876 14739 14663 14520 14477 14468 14378 14276 14264 14216 14229 14080 13991 14012 13943 13892 13803 13747 13667 13638 13493 13389 13408 13174 13074 12844 12708 12744 12718 12771 12959 12892 12823 12764 12778 12752 12721 12735 12840 12938 13053 12986 12909 13141 13227 13414 13480 13536 13523 13626 13641 14381 14399 14399 14399 14399 14405 14400 14404 14361 14335 14242 14307 14062 13792 13643 13473 13255 13086 13015 12938 12926 12838 12705 12640 12550 12495 12416 12416 12310 12156 12104 12140 12190 12276 12270 12331 12491 12542 12478 12463
19684 19599 19497 19604 19623 19691 19756 19769 19769 19609 19522 19398 19172 19099 18984 19004 18964 18800 18749 18739 18684 18760 18887 18862 18889 18805 18804 18691 18686 18883 19115 19200 19178 19121 18961 18826 18723 18752 18699 18717 18637 18644 18743 18677 18707 18603 18530 18450 18463 18394 18304 18375 18326 18193 18146 18094 18036 18121 18097 18282 18324 18398 18425 18425 18472 18525 18614 17935 17904 17727 17670 17659 17642 17788 17823 17806 17727 17686 17674 17633 17542 17586 17713 17728 17744 17654 17680 17623 17695 17777 17950 18054 18124 18225 18344 18687 18904 18810 18779 18832 18822 18914 18923 19087 19148 18994 18873 18833 18838 19008 19072 19066 19120 19129 19151 19262 19386 19485 19517 19529 19615 19715 19762 19759 19823 19931 20159 20148 20097 20018 19892 19837 19710 19501 19266 19044 18877 18833 18738 18647 18556 18532 18532 18435 18338 18289 18115 17851 17681 17601 17525 17335 17168 16962 16716 16675 16552 16336 16155 16104 16075 15947 15719 15601 15510 15301 15113 14903 14721 14630 14539 14485 14528 14396 14332 14236 14069 14051 13940 13947 13962 13907 13786 13805 13742 13668 13566 13487 13362 13291 13189 12926 12752 12773 12720 12854 12939 12871 12781 12752 12772 12797 12744 12732 12816 12845 12967 12899 12822 12936 13103 13223 13398 13509 13594 13703 14329 14360 14382 14387 14387 14395 14409 14406 14451 14388 14429 14337 14332 14030 13827 13653 13565 13398 13143 13107 12956 12872 12860 12770 12659 12513 12449 12402 12429 12246 12190 12150 12114 12154 12262 12281 12346 12466 12541 12517 12502
19650 19543 19553 19651 19609 19683 19654 19623 19574 19376 19247 19158 18943 18841 18735 18796 18750 18761 18724 18599 18645 18656 18728 18708 18767 18675 18607 18691 18635 18836 19074 19164 19181 19012 18868 18748 18690 18646 18685 18581 18549 18613 18575 18616 18652 18462 18373 18407 18356 18219 18149 18148 18255 18126 18079 18009 17909 18006 17994 18241 18283 18354 18354 18354 18444 18496 17795 17792 17710 17559 17448 17521 17495 17542 17612 17599 17570 17491 17498 17398 17364 17398 17469 17502 17580 17509 17513 17511 17600 17598 17750 17957 18042 18180 18281 18616 18844 18753 18726 18723 18777 18852 18968 19074 19118 19070 18961 18901 18927 19010 19156 19175 19158 19262 19336 19388 19507 19582 19554 19545 19520 19626 19797 19849 19938 20113 20208 20166 20222 20095 19926 19733 19625 19444 19217 19040 18882 18839 18810 18771 18737 18738 18725 18522 18456 18365 18245 17901 17683 17628 17523 17292 17178 17048 16812 16701 16691 16554 16415 16349 16352 16170 16013 15916 15775 15528 15333 15117 14808 14710 14690 14598 14674 14524 14424 14201 14069 13974 13947 14016 13941 13896 13869 13852 13760 13746 13594 13586 13532 13393 13300 13070 12937 12835 12805 12893 12994 12948 12818 12873 12897 12853 12876 12831 12843 12949 12994 12890 12774 12983 13138 13124 13213 13411 13545 13536 14316 14349 14372 14372 14372 14391 14411 14302 14466 14391 14373 14320 14259 14008 13886 13700 13595 13506 13285 13140 12877 12824 12758 12597 12522 12467 12459 12426 12353 12231 12240 12177 12226 12280 12230 12303 12372 12490 12561 12514 12511
19526 19456 19503 19594 19700 19684 19579 19497 19487 19205 19027 18914 18757 18606 18514 18511 18464 18542 18573 18537 18561 18465 18492 18553 18583 18566 18529 18661 18674 18808 18950 19108 19149 19031 18796 18658 18577 18629 18615 18508 18484 18463 18433 18400 18478 18410 18263 18210 18277 18173 18093 18064 18088 18010 17987 17914 17815 17793 18132 18219 18261 18284 18284 18305 18391 18441 17733 17662 17509 17379 17294 17336 17258 17402 17466 17448 17510 17389 17339 17239 17258 17336 17340 17399 17536 17463 17474 17489 17486 17502 17646 17735 17952 18142 18299 18614 18871 18846 18798 18773 18824 18846 18974 19051 19042 18996 18992 18984 18903 18972 19170 19265 19269 19334 19456 19435 19531 19620 19599 19540 19495 19714 19863 19983 20025 20168 20234 20210 20255 20098 19899 19718 19536 19333 19151 18959 18818 18890 18922 18870 18892 18802 18829 18688 18606 18461 18260 18037 17764 17561 17413 17314 17164 17074 16936 16851 16823 16776 16610 16602 16546 16412 16276 16156 15922 15740 15502 15224 14861 14769 14792 14723 14720 14574 14497 14268 14117 14015 13995 14021 14013 13979 13942 13814 13766 13760 13742 13680 13639 13534 13459 13305 13109 13056 12989 13009 12987 13017 12984 12937 12944 13002 13062 13011 12996 13029 12961 12904 12799 12989 13063 13062 13137 13326 13472 14250 14290 14324 14334 14334 14347 14379 14405 14253 14500 14427 14294 14216 14259 14081 13914 13771 13640 13514 13324 13095 12879 12822 12726 12590 12489 12455 12447 12358 12259 12206 12204 12233 12267 12353 12314 12350 12335 12363 12483 12483 12483
19571 19552 19500 19649 19715 19654 19544 19456 19363 19146 18973 18897 18727 18643 18518 18576 18532 18584 18557 18529 18529 18531 18547 18599 18575 18600 18569 18660 18743 18902 19048 19125 19260 19155 18975 18849 18666 18693 18674 18563 18458 18424 18419 18525 18606 18543 18424 18349 18351 18268 18088 18119 18076 18010 18029 17857 17754 17814 18094 18178 18199 18199 18199 18262 18344 17597 17516 17533 17501 17320 17252 17280 17153 17257 17287 17344 17463 17346 17339 17252 17165 17254 17418 17371 17393 17450 17408 17471 17555 17654 17672 17840 18014 18129 18352 18600 18733 18730 18791 18788 18776 18883 18934 18890 18940 18979 19031 18937 18954 19063 19172 19307 19282 19388 19442 19477 19553 19549 19573 19427 19449 19636 19819 19877 19871 19961 20111 20132 20182 19986 19891 19630 19469 19321 19134 18990 18855 18827 18806 18741 18785 18833 18781 18669 18629 18452 18313 18159 17887 17672 17494 17434 17195 17143 17063 17004 16829 16818 16725 16718 16705 16525 16357 16196 16096 15861 15514 15224 14950 14849 14780 14845 14815 14667 14615 14425 14231 14176 14101 14178 14103 14021 13925 13859 13783 13752 13720 13751 13730 13659 13535 13343 13068 13043 13081 13034 12961 12898 12946 12939 12949 13005 13045 13056 13089 13079 13083 12921 12822 12979 13041 13220 13296 13428 13569 14231 14267 14302 14302 14302 14337 14371 14179 14350 14654 14490 14271 14266 14325 14164 13959 13828 13673 13535 13247 13141 13023 12792 12656 12555 12466 12352 12345 12286 12173 12106 12147 12167 12165 12197 12314 12278 12238 12302 12357 12323 12425
19582 19566 19614 19698 19702 19632 19451 19387 19321 19179 19035 18923 18813 18610 18494 18495 18572 18513 18562 18540 18519 18546 18537 18595 18663 18722 18712 18715 18831 18944 19176 19245 19327 19181 19143 18994 18876 18812 18815 18678 18544 18556 18526 18556 18695 18580 18530 18489 18393 18303 18208 18171 18047 17954 17953 17914 17820 17759 18076 18138 18138 18138 18138 18220 17592 17535 17411 17381 17437 17265 17173 17158 17141 17169 17149 17215 17408 17404 17359 17200 17170 17308 17384 17359 17310 17378 17470 17467 17537 17636 17678 17763 17951 18213 18353 18594 18723 18710 18818 18864 18806 18739 18768 18819 18847 19023 19078 18971 18962 19076 19206 19269 19292 19356 19512 19619 19630 19489 19429 19349 19325 19523 19655 19726 19676 19911 20093 20135 20086 20025 19862 19667 19429 19342 19214 19021 18876 18765 18780 18756 18773 18719 18692 18668 18763 18562 18385 18232 18132 17913 17611 17503 17318 17287 17148 17050 16961 16820 16807 16762 16749 16650 16504 16406 16182 15866 15639 15386 15134 15053 14847 14827 14811 14692 14615 14519 14442 14381 14286 14329 14320 14177 14014 13943 13769 13805 13792 13718 13698 13639 13513 13345 13119 13142 13177 13103 12951 12851 12877 12904 12893 12933 12965 13024 13166 13152 13080 12977 12968 12995 13146 13236 13331 13479 14204 14224 14258 14270 14270 14279 14315 14350 14333 14555 14749 14551 14324 14317 14298 14093 13878 13839 13730 13534 13283 13181 13060 12909 12677 12582 12442 12287 12230 12242 12163 12139 12155 12107 12087 12211 12215 12108 12106 12165 12199 12276 12332
19461 19451 19521 19567 19608 19562 19509 19393 19221 19176 19101 18888 18794 18730 18570 18542 18550 18492 18504 18629 18659 18701 18726 18774 18798 18914 18972 18950 18965 19144 19185 19212 19327 19290 19186 19044 18898 18845 18956 18786 18727 18712 18649 18724 18756 18691 18643 18601 18472 18401 18326 18168 18081 17960 17922 17838 17778 17753 18036 18077 18077 18077 18077 18200 17425 17333 17307 17296 17355 17260 17189 17172 17031 17151 17113 17204 17262 17250 17296 17206 17148 17214 17335 17261 17167 17288 17404 17434 17501 17676 17701 17793 17970 18182 18319 18458 18653 18626 18693 18703 18851 18841 18731 18762 18875 18920 19027 19026 19018 19161 19236 19253 19270 19400 19511 19538 19641 19488 19406 19324 19368 19466 19516 19625 19671 19805 19969 20060 20052 19963 19848 19667 19546 19457 19285 19061 18891 18821 18834 18708 18755 18796 18848 18883 18863 18709 18528 18400 18267 17980 17796 17736 17567 17421 17355 17262 17124 17063 16955 16825 16771 16639 16482 16323 16193 15984 15714 15510 15235 15116 14973 14832 14746 14761 14689 14598 14548 14509 14406 14444 14460 14255 14072 13967 13898 13830 13870 13699 13620 13620 13504 13307 13164 13235 13190 13032 12956 12926 12923 12979 12956 12973 12949 12988 13100 13102 13077 13025 13008 13163 13268 13352 13474 14197 14199 14215 14234 14234 14239 14255 14290 14127 14379 14609 14781 14615 14392 14277 14217 14024 13937 13888 13719 13554 13307 13158 13089 12913 12726 12600 12407 12233 12244 12251 12143 12099 12062 12021 12038 12073 12156 12079 12070 12041 12075 12101 12153
19435 19484 19431 19455 19569 19489 19476 19378 19244 19116 19082 18949 18865 18738 18554 18576 18485 18562 18521 18688 18731 18838 18936 18950 18971 18993 19107 19169 19202 19238 19259 19262 19392 19296 19146 19000 18942 18926 19007 18968 18829 18772 18741 18850 18852 18794 18727 18679 18663 18539 18485 18348 18168 17980 17808 17734 17651 17890 18015 18015 18015 18015 18036 17370 17217 17138 17134 17218 17283 17322 17276 17206 17044 17047 17012 17042 17107 17058 17110 17115 17083 17144 17227 17204 17121 17262 17357 17471 17572 17640 17667 17860 17970 18145 18279 18458 18560 18610 18582 18628 18782 18834 18793 18798 18790 18884 19063 19112 19140 19169 19259 19249 19216 19257 19417 19555 19589 19501 19389 19403 19342 19360 19500 19497 19543 19685 19871 20003 20059 19964 19899 19743 19563 19493 19389 19170 18986 18871 18813 18742 18717 18799 18885 18939 18904 18797 18643 18498 18354 18163 18049 17875 17719 17584 17457 17339 17322 17217 17047 16921 16846 16592 16446 16383 16218 15998 15775 15513 15246 15149 15067 14959 14794 14761 14656 14580 14538 14617 14646 14565 14522 14388 14234 14133 13942 13923 13884 13758 13610 13517 13420 13335 13291 13246 13153 13069 13087 12971 12912 12971 12905 12860 12917 13034 13158 13169 13163 13055 13012 13165 13355 13415 13507 14206 14203 14214 14221 14221 14228 14242 14277 14126 14352 14547 14750 14627 14453 14356 14136 14050 14020 13925 13831 13590 13428 13239 13072 12898 12852 12660 12404 12241 12195 12144 12029 11961 11969 12004 12066 12045 12057 12022 12043 11942 11969 12059 12094
19306 19431 19355 19443 19530 19407 19364 19258 19247 19134 19036 18955 18879 18698 18580 18478 18342 18409 18423 18606 18689 18841 18989 19023 19058 18970 19029 19121 19157 19290 19375 19339 19410 19181 19052 19054 18980 18914 18968 18834 18761 18785 18709 18732 18844 18692 18706 18756 18731 18627 18492 18323 18138 17932 17849 17760 17592 17837 17950 17950 17950 17950 18017 17205 17123 17097 17068 17190 17140 17177 17105 17036 17004 16905 16829 16991 17063 17051 16995 17015 16970 17046 17124 17051 17112 17199 17323 17388 17483 17541 17613 17746 17887 18009 18164 18274 18472 18465 18508 18563 18772 18738 18772 18680 18674 18830 18914 18912 19012 19118 19226 19305 19271 19350 19506 19524 19492 19456 19423 19337 19277 19353 19368 19440 19475 19625 19894 19877 19949 19867 19836 19614 19470 19401 19282 19140 19000 18939 18836 18730 18726 18877 18959 18846 18774 18685 18637 18498 18360 18325 18213 18064 17901 17807 17670 17600 17534 17357 17150 16966 16901 16724 16567 16388 16315 16064 15920 15647 15479 15377 15168 15111 14989 14934 14811 14743 14588 14621 14670 14578 14634 14492 14292 14084 13946 13889 13852 13805 13691 13579 13405 13275 13276 13208 13111 13146 13104 13057 13074 12973 12939 12929 12964 13148 13227 13261 13163 13131 13118 13246 13382 13420 14226 14211 14207 14211 14211 14208 14210 14222 14024 14272 14403 14636 14766 14677 14494 14299 14217 14093 14034 13959 13781 13732 13537 13277 13134 13077 12921 12673 12509 12343 12286 12271 12092 12032 12069 12092 12061 12127 12085 12036 12047 12112 12026 12159 12179
19269 19342 19373 19348 19422 19317 19283 19258 19156 19038 18971 18864 18829 18613 18491 18398 18234 18265 18279 18513 18638 18745 18945 18988 19069 19018 19032 19025 19133 19318 19413 19420 19352 19225 19044 18935 18901 18953 18893 18784 18737 18727 18661 18641 18714 18679 18729 18693 18751 18556 18440 18300 18095 17972 17816 17677 17533 17811 17883 17883 17883 17883 17978 17026 16975 17081 17077 17107 17115 17037 16922 16950 16951 16853 16737 16816 16894 16885 16847 16868 16860 16902 17012 16972 16992 17107 17178 17306 17523 17487 17520 17702 17812 17995 18100 18236 18476 18511 18447 18512 18699 18651 18693 18682 18673 18751 18753 18791 18846 19024 19238 19374 19384 19379 19479 19515 19520 19416 19374 19361 19279 19339 19323 19388 19492 19689 19870 19869 19966 19907 19786 19608 19311 19228 19128 19017 18927 18904 18799 18843 18828 18840 18918 18807 18765 18754 18669 18555 18413 18363 18350 18235 18112 17941 17771 17730 17647 17449 17204 17036 16965 16728 16612 16492 16461 16255 16017 15844 15636 15474 15364 15377 15291 15108 14925 14852 14717 14769 14736 14657 14683 14536 14293 14110 14043 13912 13850 13793 13708 13466 13296 13259 13183 13139 13084 13143 13214 13197 13169 13149 13058 13081 13106 13190 13292 13298 13292 13282 13157 13206 13340 13456 14238 14222 14216 14216 14216 14203 14199 14025 14058 14375 14574 14708 14859 14647 14467 14317 14241 14119 13999 13853 13775 13769 13651 13392 13261 13182 12994 12853 12664 12565 12400 12360 12260 12122 12112 12071 12010 12072 12133 12118 12161 12193 12133 12207 12205
19177 19225 19226 19254 19386 19322 19277 19197 19104 19039 18960 18836 18828 18695 18475 18348 18151 18221 18290 18483 18674 18801 18888 18968 19021 19112 19203 19201 19232 19318 19420 19471 19455 19254 19143 19016 18971 18996 18864 18773 18800 18763 18629 18669 18612 18571 18643 18607 18747 18515 18445 18243 18160 18036 17811 17632 17573 17763 17811 17811 17811 17811 17957 16859 16835 16875 16841 16935 16922 16869 16848 16865 16828 16790 16668 16609 16681 16745 16852 16813 16793 16943 17009 17012 16981 17181 17224 17231 17346 17486 17534 17676 17860 18012 18133 18281 18467 18441 18387 18429 18649 18593 18591 18564 18519 18659 18671 18791 18840 19040 19194 19237 19338 19388 19382 19443 19505 19423 19260 19293 19291 19309 19348 19370 19477 19701 19866 19841 19910 19782 19713 19563 19336 19243 19123 18982 18851 18909 18834 18790 18831 18843 18862 18701 18708 18690 18629 18603 18432 18406 18406 18400 18279 18161 17960 17868 17673 17596 17356 17311 17174 16910 16723 16606 16468 16284 16121 16052 15857 15778 15672 15562 15415 15221 15104 14929 14806 14793 14800 14687 14698 14621 14504 14321 14150 14016 13870 13746 13668 13557 13310 13274 13148 13166 13122 13175 13244 13209 13131 13070 13005 13059 13024 13202 13300 13336 13338 13325 13173 13247 13353 14286 14257 14238 14233 14233 14218 14203 14194 14042 14072 14402 14572 14653 14858 14665 14528 14347 14254 14168 14002 13887 13851 13706 13659 13489 13362 13195 13066 12945 12658 12564 12501 12415 12255 12152 12015 11995 12001 12014 12101 12149 12058 12147 12129 12073 12080
19195 19205 19194 19267 19392 19340 19320 19157 19087 18974 18970 18912 18734 18673 18535 18280 18099 18198 18225 18388 18586 18756 18937 18954 19048 19203 19267 19291 19284 19427 19450 19443 19483 19321 19231 19091 19002 18969 18825 18854 18773 18653 18630 18595 18475 18422 18462 18554 18636 18556 18406 18276 18136 17989 17835 17705 17580 17717 17717 17717 17717 17763 16836 16726 16653 16626 16665 16722 16797 16729 16741 16715 16751 16624 16548 16513 16518 16653 16769 16818 16776 16922 17006 17035 17049 17180 17192 17251 17224 17369 17520 17732 17872 18026 18213 18320 18430 18354 18392 18399 18533 18568 18497 18422 18452 18587 18665 18740 18726 18905 19143 19299 19402 19365 19412 19465 19392 19381 19274 19337 19279 19437 19492 19508 19452 19551 19743 19795 19868 19796 19601 19417 19261 19201 19083 18985 18898 18866 18782 18890 18882 18740 18720 18684 18750 18714 18598 18584 18538 18449 18485 18543 18539 18395 18231 17969 17804 17689 17617 17439 17315 17046 16858 16714 16588 16420 16271 16146 16008 15919 15867 15757 15574 15469 15354 15097 14883 14776 14797 14783 14824 14705 14679 14533 14313 14191 13969 13900 13716 13590 13364 13303 13148 13185 13274 13269 13176 13125 13038 13083 13062 13080 13027 13116 13211 13194 13288 13272 13231 13309 14349 14311 14279 14264 14264 14253 14227 14210 13845 14020 14155 14353 14559 14637 14826 14749 14555 14492 14358 14235 14101 14089 13962 13742 13644 13578 13473 13288 13155 12966 12710 12584 12561 12477 12343 12141 12034 11973 11919 11998 12103 12118 12078 12072 12064 12029 12074
19081 19067 19173 19230 19370 19175 19062 18937 18915 18790 18739 18737 18650 18515 18422 18181 17927 18067 18183 18228 18444 18617 18827 18820 18869 18934 18921 19010 19078 19208 19274 19346 19380 19304 19221 19040 18934 18893 18795 18743 18636 18563 18453 18398 18395 18429 18387 18447 18469 18379 18317 18163 17956 17835 17609 17505 17559 17671 17671 17671 17671 17737 16716 16609 16550 16533 16450 16488 16578 16541 16499 16615 16679 16601 16494 16550 16505 16554 16699 16803 16782 16852 16945 16947 17091 17137 17169 17212 17107 17278 17450 17556 17653 17869 18116 18261 18259 18223 18207 18297 18338 18350 18296 18328 18417 18393 18499 18633 18632 18762 18978 19136 19279 19287 19359 19353 19275 19275 19191 19235 19290 19369 19402 19467 19556 19711 19821 19918 19912 19727 19602 19403 19268 19148 19033 19044 18921 18906 18779 18858 18929 18776 18746 18724 18801 18784 18682 18745 18713 18669 18644 18649 18515 18386 18349 18194 17975 17942 17861 17623 17517 17283 17048 16895 16732 16482 16269 16216 15997 15943 16001 15759 15659 15472 15305 15232 15077 14942 14829 14832 14777 14694 14632 14531 14358 14250 14144 14015 13846 13745 13513 13417 13214 13269 13254 13290 13175 13149 13122 13181 13173 13138 13217 13317 13341 13400 13424 13381 13370 13503 14365 14324 14292 14292 14292 14268 14238 14028 14129 14292 14385 14563 14776 14836 15018 14972 14749 14587 14358 14193 14140 14098 14020 13866 13708 13590 13462 13276 13136 12980 12757 12675 12625 12529 12398 12214 12034 11977 11956 12079 12125 12263 12234 12233 12130 12101 12102
19085 19044 19064 19117 19225 19041 18856 18800 18707 18623 18613 18590 18447 18265 18183 17974 17813 17902 18086 18137 18314 18463 18641 18673 18700 18715 18696 18819 18854 19054 19199 19278 19397 19312 19107 18925 18749 18692 18682 18592 18485 18322 18282 18233 18244 18263 18250 18232 18342 18226 18161 17934 17823 17684 17435 17451 17516 17580 17580 17580 17624 17688 16474 16435 16369 16367 16357 16346 16319 16379 16314 16441 16532 16601 16558 16536 16420 16491 16656 16801 16860 16828 16784 16877 17029 17026 17049 17084 17065 17167 17347 17391 17475 17773 17964 18107 18215 18164 18106 18190 18249 18198 18203 18208 18291 18299 18387 18527 18599 18747 18863 19017 19063 19218 19308 19215 19207 19195 19231 19359 19384 19441 19399 19450 19602 19716 19848 19913 19978 19782 19616 19431 19206 19145 19025 18990 18956 18946 18834 18952 18998 18860 18752 18711 18795 18742 18740 18804 18846 18856 18783 18655 18597 18493 18379 18330 18188 18121 18070 17920 17656 17401 17165 17056 16831 16671 16385 16247 16016 15956 16014 15857 15634 15502 15336 15265 15158 15038 14976 14869 14848 14794 14622 14540 14389 14309 14298 14125 14041 13888 13732 13531 13275 13239 13233 13230 13258 13277 13203 13218 13292 13320 13325 13433 13473 13525 13613 13636 13620 14448 14399 14355 14331 14331 14316 14276 14244 14247 14293 14491 14701 14777 14972 15129 15232 15132 14919 14667 14478 14265 14116 14093 13998 13905 13786 13689 13490 13333 13098 13052 12884 12800 12738 12577 12446 12299 12094 12008 12014 12163 12224 12327 12387 12360 12210 12163 12221
19056 19076 19071 19025 19100 18873 18710 18641 18578 18558 18525 18503 18387 18133 18036 17856 17706 17812 17973 18001 18137 18327 18405 18375 18442 18484 18518 18673 18759 18884 19107 19270 19317 19294 19078 18879 18631 18606 18565 18409 18304 18274 18200 18078 18012 18046 18044 18088 18178 18018 17899 17787 17664 17565 17331 17403 17470 17513 17513 17536 17602 17666 16326 16289 16224 16184 16140 16133 16136 16243 16272 16282 16371 16434 16402 16484 16522 16552 16686 16718 16782 16728 16721 16855 16951 16888 16897 17014 16998 17036 17195 17330 17369 17566 17774 17955 18161 18043 18015 18035 18009 18053 18021 18074 18213 18195 18250 18496 18641 18665 18809 18890 18974 19143 19267 19298 19298 19274 19363 19454 19388 19439 19405 19489 19606 19721 19764 19931 19967 19825 19622 19427 19211 19157 19177 19137 19056 18929 18964 18906 18950 18929 18901 18919 18993 18997 18945 19026 18949 18970 18840 18808 18634 18579 18508 18393 18344 18299 18183 18021 17850 17650 17395 17172 17082 16821 16568 16360 16130 16140 16108 16005 15799 15676 15546 15412 15144 15110 15073 15067 14944 14786 14677 14584 14421 14423 14327 14164 14160 13885 13773 13612 13397 13293 13308 13302 13293 13307 13330 13284 13314 13248 13280 13334 13441 13609 13602 13711 13803 14480 14432 14387 14387 14387 14340 14298 14153 14301 14418 14644 14891 14947 15083 15258 15393 15184 14973 14700 14472 14398 14283 14179 14052 13965 13829 13676 13536 13352 13223 13117 12967 12855 12714 12701 12587 12377 12255 12176 12143 12125 12224 12296 12465 12397 12223 12173 12183
19127 19062 18971 18956 18854 18755 18615 18444 18401 18453 18429 18271 18233 18058 17996 17811 17675 17823 17867 17936 18059 18087 18146 18191 18257 18415 18452 18522 18649 18832 19104 19177 19331 19250 19099 18899 18632 18523 18466 18290 18218 18155 18078 17873 17787 17852 17947 17868 17897 17685 17570 17588 17484 17229 17279 17353 17422 17422 17446 17493 17559 16507 16287 16088 15981 16059 16024 16055 16044 16123 16132 16150 16228 16242 16369 16510 16577 16661 16695 16728 16714 16674 16714 16715 16770 16798 16826 16883 16934 17037 17154 17120 17145 17400 17540 17829 18009 17943 17819 17781 17829 17864 17884 18033 18104 18130 18240 18403 18621 18693 18843 18874 18977 19081 19145 19192 19270 19335 19381 19463 19476 19427 19473 19564 19657 19654 19776 19867 19967 19837 19639 19458 19316 19309 19259 19163 19106 18993 19006 19008 19000 18921 18952 18975 19090 19137 19200 19163 19105 19089 18982 18915 18726 18629 18552 18565 18562 18487 18360 18181 18047 17854 17591 17378 17256 16979 16779 16497 16267 16247 16192 16103 15903 15773 15662 15442 15227 15219 15170 15164 15080 14865 14726 14580 14549 14422 14298 14263 14155 13963 13875 13614 13435 13477 13477 13404 13430 13524 13501 13504 13385 13310 13361 13429 13493 13658 13714 13817 14560 14500 14450 14434 14434 14416 14367 14321 14248 14355 14582 14829 15035 15042 15170 15385 15505 15282 15013 14783 14554 14401 14355 14292 14158 14091 13922 13785 13704 13429 13238 13084 13021 12894 12767 12757 12710 12536 12329 12275 12179 12206 12273 12330 12452 12389 12203 12197 12208
19063 18929 18853 18855 18810 18702 18582 18414 18260 18297 18193 18083 18132 17886 17786 17722 17610 17771 17844 17874 17960 17953 17994 18066 18048 18212 18367 18475 18591 18780 18945 19046 19302 19173 19067 18898 18720 18537 18452 18223 18185 18071 17900 17769 17588 17608 17641 17612 17698 17581 17386 17322 17145 17189 17235 17307 17330 17353 17401 17449 17517 16244 16153 16009 15944 15907 15944 15905 15919 15944 16018 16104 16232 16313 16264 16345 16480 16579 16540 16604 16672 16693 16607 16686 16664 16654 16655 16772 16739 16779 16874 16906 16974 17262 17417 17574 17745 17818 17823 17820 17805 17859 17840 17997 18019 18089 18210 18439 18582 18722 18727 18877 19078 19106 19060 19206 19350 19387 19405 19421 19560 19524 19556 19647 19743 19731 19791 19859 19917 19722 19632 19507 19338 19183 19140 19184 19153 19124 19198 19187 19135 19109 19052 19090 19217 19259 19316 19189 19110 19100 19033 18963 18909 18754 18620 18640 18672 18566 18424 18238 18106 17840 17626 17468 17236 16999 16760 16596 16372 16234 16149 15923 15778 15765 15609 15413 15259 15177 15199 15200 15046 14950 14760 14598 14609 14537 14351 14271 14242 14024 13894 13609 13452 13509 13529 13500 13566 13622 13649 13655 13550 13462 13550 13634 13695 13831 13818 13840 14602 14541 14506 14506 14506 14448 14399 14475 14486 14626 14821 15017 15221 15244 15399 15489 15645 15465 15246 14993 14761 14573 14405 14270 14230 14089 13965 13846 13856 13529 13353 13293 13163 12987 12921 12875 12737 12676 12508 12343 12267 12227 12322 12319 12409 12346 12313 12302 12337
18913 18906 18807 18801 18857 18660 18475 18264 18150 18033 18037 17943 17949 17815 17690 17659 17668 17701 17731 17853 17979 17966 17838 17819 17929 18204 18375 18510 18537 18638 18818 19005 19205 19055 19021 18804 18706 18525 18437 18214 18077 17838 17702 17620 17451 17454 17338 17320 17429 17317 17266 17037 17093 17140 17187 17259 17283 17330 17378 17427 16180 16068 15908 15815 15810 15828 15923 15901 15789 15868 15933 16077 16277 16300 16229 16223 16283 16418 16489 16609 16613 16625 16599 16569 16529 16511 16508 16636 16660 16656 16700 16848 16932 17091 17275 17493 17610 17685 17705 17633 17655 17792 17847 17871 17835 17965 18163 18335 18528 18664 18701 18920 19081 19053 19090 19241 19379 19364 19349 19499 19568 19611 19695 19753 19740 19658 19705 19759 19807 19759 19633 19544 19345 19179 19142 19140 19158 19175 19291 19169 19161 19169 19191 19238 19384 19322 19352 19276 19148 19092 19014 19071 19014 18849 18739 18797 18730 18659 18535 18294 18051 17838 17559 17475 17325 17104 16863 16602 16408 16278 16076 15864 15777 15663 15496 15467 15322 15273 15226 15210 15086 14981 14790 14688 14609 14562 14392 14320 14255 14018 13803 13624 13514 13507 13584 13717 13819 13800 13791 13714 13684 13696 13697 13796 13932 13949 13913 14698 14641 14581 14563 14563 14524 14465 14419 14713 14677 14890 15108 15255 15342 15501 15630 15765 15838 15656 15483 15263 14984 14719 14541 14365 14266 14164 14094 13966 13903 13667 13481 13471 13342 13210 13062 12908 12788 12719 12685 12495 12330 12357 12338 12316 12368 12427 12485 12452 12359
18829 18726 18698 18767 18730 18538 18460 18242 18105 18082 17970 17950 17907 17808 17704 17687 17618 17673 17671 17737 17888 17897 17774 17818 17836 18135 18326 18446 18588 18667 18846 19009 19121 18986 18932 18753 18639 18468 18301 18131 17966 17767 17634 17453 17328 17231 17164 17235 17299 17165 17127 16986 17040 17089 17136 17161 17236 17281 17329 17379 15882 15771 15685 15666 15616 15744 15824 15835 15698 15833 16033 16104 16208 16186 16215 16198 16147 16268 16462 16463 16544 16522 16580 16464 16416 16481 16520 16491 16523 16518 16607 16780 16880 16990 17129 17255 17434 17497 17539 17439 17418 17545 17779 17810 17764 17894 18112 18296 18505 18560 18736 18918 19083 19126 19231 19320 19356 19425 19419 19538 19635 19743 19804 19757 19790 19750 19697 19774 19824 19701 19596 19548 19393 19214 19211 19196 19282 19283 19376 19297 19187 19207 19266 19410 19443 19414 19359 19359 19218 19255 19123 19129 19117 19046 18902 18903 18719 18656 18483 18302 18176 17859 17626 17481 17319 17074 16732 16568 16331 16182 16141 15969 15810 15661 15597 15479 15299 15249 15185 15170 14993 14979 14867 14643 14610 14544 14418 14345 14191 14080 13863 13738 13575 13665 13734 13757 13935 13965 13885 13895 13959 14023 14010 14132 14157 14196 14098 14718 14660 14619 14619 14619 14560 14497 14946 15012 14967 15137 15345 15389 15568 15633 15763 15854 15975 15764 15508 15346 15032 14880 14642 14551 14356 14216 14104 14024 13862 13779 13601 13486 13402 13252 13201 12991 12896 12862 12845 12698 12569 12495 12522 12475 12491 12491 12482 12446 12364
18824 18716 18674 18621 18649 18457 18329 18191 18133 18087 17922 17916 17836 17722 17608 17587 17500 17493 17527 17627 17705 17749 17715 17807 17786 17975 18206 18407 18596 18781 18851 18910 19022 18931 18785 18701 18555 18280 18071 17961 17827 17706 17546 17361 17205 17130 17014 17040 17067 16997 16854 16933 16987 17036 17060 17112 17188 17232 17276 15821 15561 15419 15368 15353 15430 15509 15604 15700 15704 15864 16025 16170 16200 16181 16122 16117 16073 16145 16311 16349 16385 16376 16488 16437 16401 16448 16500 16403 16401 16451 16485 16597 16785 16942 16991 17097 17223 17255 17317 17317 17306 17437 17635 17651 17780 17861 18070 18327 18567 18584 18663 18854 19014 19114 19259 19357 19366 19365 19411 19498 19623 19671 19804 19774 19794 19790 19794 19788 19858 19708 19676 19465 19379 19300 19302 19280 19387 19396 19420 19346 19293 19311 19447 19498 19531 19498 19445 19357 19275 19335 19334 19313 19205 19126 19101 18992 18814 18617 18547 18405 18288 18029 17754 17477 17245 16979 16704 16515 16306 16177 16114 15989 15752 15708 15615 15469 15401 15299 15180 15057 14986 14978 14854 14641 14505 14522 14448 14353 14226 14078 13893 13803 13662 13748 13779 13864 14073 14089 14015 14050 14123 14246 14288 14314 14360 14336 14820 14752 14696 14696 14696 14678 14602 14991 15137 15249 15252 15384 15495 15597 15796 15852 15996 16009 16037 15856 15596 15376 15207 14925 14747 14604 14476 14327 14099 14021 13938 13787 13637 13639 13551 13332 13238 13111 13098 12986 12974 12853 12688 12667 12606 12504 12512 12509 12575 12504 12484
18701 18652 18522 18548 18558 18402 18252 18109 18063 18041 17945 17939 17792 17761 17618 17569 17478 17525 17530 17505 17616 17525 17575 17688 17711 17901 18141 18252 18498 18549 18669 18863 19016 18818 18738 18539 18443 18201 17940 17830 17664 17612 17472 17284 17160 16975 16905 16936 17006 16758 16806 16883 16936 16962 17012 17065 17145 17192 15719 15679 15437 15360 15333 15265 15283 15439 15460 15633 15702 15815 16021 16073 16187 16130 16143 16044 16102 16070 16191 16276 16229 16262 16265 16271 16208 16340 16427 16372 16357 16398 16462 16590 16750 16832 16967 17074 17184 17201 17287 17352 17423 17505 17678 17737 17680 17935 18125 18294 18486 18557 18614 18800 18914 19042 19069 19202 19242 19319 19393 19592 19772 19698 19754 19887 19903 19923 19952 19972 19919 19817 19747 19565 19407 19400 19316 19266 19343 19403 19474 19344 19302 19397 19497 19454 19518 19515 19505 19459 19288 19367 19308 19261 19161 19213 19170 18984 18839 18706 18573 18492 18337 18016 17773 17550 17332 17084 16811 16626 16383 16320 16238 16124 16021 15902 15672 15587 15469 15351 15255 15080 15034 14985 14921 14820 14621 14615 14442 14485 14385 14126 13927 13869 13677 13770 13893 13996 14114 14057 14053 14062 14239 14294 14254 14244 14302 14251 14837 14769 14733 14733 14733 14698 14623 15082 15199 15239 15324 15381 15531 15691 15827 15846 15904 15942 15976 15903 15692 15553 15305 15148 14931 14811 14779 14562 14310 14292 14149 14105 13943 13917 13746 13680 13475 13408 13290 13171 13100 13024 12953 12941 12887 12860 12741 12704 12756 12675 12641
18473 18473 18493 18475 18461 18266 18192 18135 18011 18021 17997 17983 17863 17669 17578 17583 17497 17472 17537 17490 17444 17413 17430 17583 17633 17826 18086 18161 18355 18421 18590 18793 18980 18808 18669 18511 18289 18053 17926 17788 17558 17422 17360 17186 17006 16953 16854 16942 16689 16735 16783 16859 16885 16910 16960 17013 17097 15676 15601 15496 15352 15219 15181 15114 15172 15279 15410 15542 15587 15701 15912 16027 16050 16055 16095 16028 16061 16080 16095 16143 16126 16063 16015 15980 16062 16244 16341 16304 16199 16213 16353 16564 16747 16849 16947 17141 17210 17211 17165 17336 17459 17533 17607 17694 17699 17919 18184 18315 18455 18575 18638 18815 18908 18997 18974 19102 19187 19336 19463 19668 19798 19784 19747 19885 19948 19949 20005 20026 19989 19851 19726 19556 19504 19416 19431 19350 19307 19420 19475 19412 19398 19374 19462 19404 19472 19505 19476 19503 19407 19406 19293 19234 19240 19165 19202 19080 18905 18662 18496 18522 18429 18099 17829 17552 17351 17073 16924 16736 16429 16483 16442 16341 16171 15980 15788 15649 15549 15404 15332 15161 15029 15024 15049 14931 14838 14633 14547 14560 14483 14211 14041 13817 13718 13930 14021 13990 14077 14120 14138 14143 14246 14219 14269 14336 14310 14271 14866 14801 14801 14801 14801 14735 14994 15046 15144 15292 15352 15378 15525 15758 15890 15865 15863 15828 15911 15862 15703 15609 15503 15346 15121 15081 14987 14740 14523 14459 14446 14336 14283 14108 13997 13925 13803 13575 13384 13360 13240 13274 13322 13202 13152 13095 12981 12945 13007 12902 12736
18334 18308 18336 18373 18399 18201 18041 18039 17972 17960 17941 17894 17883 17687 17602 17606 17412 17457 17428 17377 17347 17332 17393 17482 17601 17674 17831 18028 18138 18280 18493 18735 18844 18689 18500 18355 18167 17918 17792 17648 17458 17312 17120 16931 16880 16753 16725 16819 16660 16700 16744 16792 16792 16858 16907 16960 15626 15528 15361 15290 15162 15189 15161 15026 15025 15203 15363 15443 15555 15645 15714 15824 16009 16018 16043 16016 16005 16088 16161 16091 16077 15994 15928 15912 16016 16184 16282 16233 16186 16216 16336 16499 16545 16642 16723 16901 17050 17061 17157 17255 17447 17469 17572 17734 17764 18010 18260 18395 18475 18512 18571 18787 18953 18963 18991 19084 19282 19347 19519 19616 19817 19788 19863 19963 19913 19994 19966 19923 19965 19900 19756 19596 19447 19411 19460 19385 19278 19367 19546 19494 19517 19474 19345 19366 19354 19430 19393 19450 19314 19272 19289 19246 19246 19273 19220 19115 18925 18655 18495 18489 18386 18173 17832 17588 17381 17170 16953 16836 16613 16588 16458 16359 16245 16060 15880 15760 15569 15484 15413 15318 15161 15165 15092 15100 15019 14886 14712 14650 14521 14256 14127 13941 13849 13997 14013 14092 14115 14089 14084 14170 14133 14230 14232 14207 14194 14925 14878 14848 14848 14848 14835 14773 15148 15204 15301 15330 15456 15565 15602 15800 15979 15948 15915 15870 15933 15901 15834 15684 15673 15478 15324 15329 15214 14986 14769 14620 14525 14448 14460 14346 14170 14054 13976 13824 13657 13581 13415 13437 13573 13507 13371 13255 13236 13117 13131 12931 12816
18303 18328 18293 18244 18226 18090 17960 17866 17850 17836 17947 17875 17885 17766 17686 17581 17353 17278 17243 17262 17315 17375 17330 17449 17517 17552 17696 17752 17901 18114 18358 18571 18705 18514 18382 18180 17960 17810 17673 17451 17308 17065 16925 16744 16665 16639 16653 16585 16630 16667 16708 16708 16744 16806 16854 15694 15489 15301 15184 15069 15043 15045 15030 15015 14929 15111 15363 15502 15556 15539 15609 15700 15912 15967 15953 15916 15939 16012 16105 16126 16048 16004 15873 15956 15953 16071 16101 16135 16178 16307 16376 16418 16465 16534 16604 16834 16991 17008 17108 17196 17359 17471 17588 17748 17836 18100 18262 18364 18461 18527 18595 18744 18914 18916 18979 19099 19264 19457 19627 19672 19795 19854 19952 19978 19969 19948 19980 19954 19964 19807 19761 19586 19469 19464 19538 19420 19374 19460 19524 19526 19527 19476 19308 19357 19307 19346 19350 19400 19326 19264 19296 19324 19328 19289 19180 19015 18863 18710 18605 18465 18436 18197 17947 17704 17418 17305 17097 16925 16699 16590 16574 16501 16396 16191 15971 15763 15558 15445 15380 15325 15245 15182 15157 15121 15091 14945 14879 14821 14639 14382 14189 14036 13872 13988 14123 14134 14248 14229 14135 14113 14135 14230 14248 14268 14196 14940 14897 14884 14884 14884 14850 14789 15215 15266 15343 15454 15523 15620 15691 15862 15967 16041 16075 15999 16038 15978 15943 15879 15844 15648 15534 15542 15478 15264 15043 14841 14711 14679 14600 14510 14381 14337 14241 14073 13862 13728 13698 13716 13776 13758 13661 13573 13412 13390 13268 13024 12888
18189 18175 18071 18030 18060 18042 18000 17965 17871 17910 17956 17919 17903 17752 17590 17430 17322 17296 17188 17283 17287 17269 17324 17382 17416 17468 17539 17643 17739 17985 18288 18483 18556 18332 18234 18073 17850 17647 17597 17363 17178 17015 16762 16713 16595 16554 16520 16558 16602 16637 16637 16651 16700 16758 15685 15604 15494 15327 15246 15092 14981 14947 14961 14911 14817 14984 15272 15273 15368 15403 15555 15631 15755 15744 15673 15755 15753 15789 15789 15818 15781 15779 15749 15933 16004 16070 16017 16132 16170 16354 16384 16429 16467 16538 16601 16782 16891 16967 17110 17233 17331 17554 17652 17883 18073 18126 18269 18465 18521 18621 18713 18776 18929 19041 19140 19261 19333 19474 19690 19765 19932 19890 20029 20076 20064 20074 19991 20030 20017 19909 19823 19743 19551 19557 19628 19502 19413 19446 19494 19573 19576 19459 19395 19391 19432 19319 19372 19327 19317 19271 19321 19248 19171 19235 19150 19053 18866 18751 18668 18511 18395 18203 18066 17765 17565 17470 17294 17127 16923 16766 16635 16498 16389 16188 15981 15771 15614 15454 15441 15364 15288 15164 15151 15132 15055 15042 14970 14902 14778 14427 14225 14077 13881 13988 14135 14194 14294 14193 14162 14163 14124 14152 14206 14216 14271 14948 14919 14919 14919 14919 14881 15112 15305 15360 15382 15467 15579 15658 15760 15892 15983 16072 16040 15989 16045 16034 16116 16040 15984 15724 15616 15598 15609 15411 15239 15034 14904 14907 14842 14647 14561 14446 14392 14260 14206 14038 13963 13933 13975 13906 13735 13599 13479 13450 13427 13260 13044
17975 17994 17919 17815 17790 17834 17984 17927 17968 17994 17944 17898 17964 17771 17602 17402 17193 17236 17262 17267 17322 17272 17316 17319 17399 17419 17498 17558 17687 17889 18140 18268 18500 18247 18060 17825 17616 17548 17513 17307 17132 16914 16713 16551 16417 16366 16510 16546 16589 16589 16589 16616 16660 15717 15630 15587 15427 15355 15200 15097 14956 14979 15020 14813 14725 14915 15129 15152 15258 15292 15381 15516 15615 15496 15447 15464 15540 15596 15572 15600 15636 15723 15743 15914 15983 15975 15974 16027 16180 16343 16428 16437 16504 16620 16647 16802 16873 16950 17067 17216 17414 17576 17695 17975 18184 18277 18381 18528 18623 18631 18764 18850 19017 19161 19318 19474 19510 19619 19727 19896 20086 19999 20031 20179 20222 20180 20054 20038 20047 20051 19972 19866 19723 19760 19706 19521 19416 19446 19587 19592 19562 19466 19425 19447 19436 19356 19326 19323 19292 19299 19332 19221 19118 19089 19065 19051 18921 18748 18662 18512 18413 18290 18131 17898 17701 17502 17432 17222 17054 16935 16797 16601 16426 16200 16000 15859 15612 15563 15426 15353 15350 15177 15090 15098 15053 15002 15013 14852 14792 14561 14316 14162 14012 14086 14216 14290 14280 14199 14170 14072 14093 14125 14281 14317 14309 14959 14943 14943 14943 14943 14894 15069 15294 15471 15531 15612 15612 15699 15880 15947 16022 16071 16010 16010 16134 16203 16164 16073 16021 15815 15722 15712 15653 15450 15359 15287 15221 15089 14970 14806 14669 14514 14474 14431 14449 14365 14355 14260 14216 14080 13846 13764 13611 13507 13499 13316 13086
17790 17836 17841 17702 17663 17737 17949 17951 17989 17976 17859 17827 17874 17664 17542 17289 17146 17211 17285 17330 17423 17272 17275 17325 17405 17452 17503 17627 17739 17846 18067 18297 18455 18166 17878 17690 17517 17391 17378 17094 16982 16828 16709 16533 16433 16483 16498 16529 16555 16555 16564 16601 16646 15669 15494 15423 15350 15243 15113 15042 15016 14982 14972 14819 14800 14946 15015 15025 15173 15219 15279 15396 15479 15362 15264 15301 15353 15328 15425 15485 15512 15569 15714 15901 15963 15971 16052 16107 16238 16347 16521 16532 16605 16643 16665 16735 16868 16924 17034 17225 17538 17576 17751 17990 18276 18445 18501 18705 18794 18922 18985 19094 19124 19197 19369 19488 19624 19715 19805 20007 20161 20101 20118 20155 20227 20182 20089 20069 20058 20000 19899 19876 19899 19801 19800 19598 19499 19547 19630 19677 19635 19650 19638 19468 19420 19410 19372 19268 19265 19318 19248 19128 19088 19074 18997 19003 18884 18797 18653 18626 18571 18466 18283 18013 17884 17664 17602 17371 17234 17158 17020 16726 16512 16348 16130 15799 15576 15563 15467 15360 15322 15159 15134 15101 15195 15114 15055 14847 14778 14646 14508 14358 14119 14100 14117 14121 14251 14125 14145 14141 14174 14228 14282 14338 14990 14964 14964 14964 14964 14959 14938 15091 15353 15417 15561 15715 15760 15842 15927 16070 16122 16106 16096 16182 16245 16259 16241 16210 16099 16034 15916 15899 15899 15663 15539 15536 15411 15309 15219 15012 14856 14633 14573 14645 14662 14499 14460 14403 14383 14250 14084 13962 13721 13629 13552 13326 13055
17618 17669 17684 17662 17557 17666 17825 17860 17929 17863 17899 17827 17795 17605 17502 17316 17220 17185 17182 17236 17401 17377 17336 17323 17291 17435 17545 17576 17729 17907 18120 18256 18317 18084 17799 17637 17442 17327 17130 16967 16909 16776 16693 16566 16486 16485 16494 16520 16520 16524 16537 16571 15644 15546 15330 15317 15246 15194 15134 15049 14973 14915 14937 14880 14764 14911 14934 15012 15050 15006 15076 15267 15334 15304 15173 15126 15157 15149 15202 15302 15362 15550 15682 15815 15868 16006 16039 16191 16228 16387 16548 16588 16661 16732 16784 16777 16800 16973 17069 17355 17590 17698 17899 18143 18366 18501 18549 18765 18968 19074 19165 19210 19250 19300 19439 19562 19754 19893 19968 20023 20202 20168 20208 20246 20343 20271 20134 20120 20142 19998 19947 19929 19950 19931 19840 19777 19664 19681 19786 19840 19828 19821 19758 19576 19499 19431 19313 19347 19331 19238 19185 19177 19116 19065 19040 18953 18762 18723 18700 18723 18622 18517 18323 18128 17949 17822 17804 17597 17502 17290 17169 16883 16599 16355 16172 15890 15572 15575 15482 15378 15235 15180 15254 15205 15263 15205 15047 14920 14812 14691 14648 14468 14261 14128 14094 14047 14120 14039 14055 14105 14233 14297 14277 14433 15001 14979 14979 14979 14979 14966 14904 15106 15345 15448 15641 15709 15881 15997 16068 16186 16207 16134 16181 16202 16332 16293 16260 16203 16095 16077 16079 15992 16022 15929 15765 15724 15669 15478 15403 15132 14920 14795 14783 14875 14851 14701 14669 14600 14495 14370 14247 14101 13867 13680 13562 13371 13143
17508 17584 17654 17644 17580 17605 17715 17713 17697 17731 17615 17657 17626 17468 17376 17284 17137 17136 17060 17115 17218 17217 17164 17049 17079 17248 17414 17430 17558 17728 17945 18097 18123 17867 17648 17505 17313 17127 17005 16860 16746 16594 16539 16401 16487 16486 16493 16499 16499 16504 16513 16543 15675 15561 15343 15251 15179 15170 15232 15145 15083 15013 15029 15005 14922 14956 15126 15211 15188 15249 15269 15287 15314 15182 15115 15138 15113 15098 15129 15235 15281 15422 15591 15689 15758 15846 15965 16002 16113 16233 16401 16518 16603 16653 16695 16711 16868 17007 17147 17339 17589 17705 17890 18091 18306 18278 18342 18566 18826 18894 18915 19097 19163 19228 19349 19477 19556 19713 19932 19972 20162 20092 20169 20219 20341 20178 20124 20077 20157 20004 19967 19922 19947 19814 19860 19754 19685 19690 19815 19869 19849 19813 19800 19757 19636 19448 19326 19325 19375 19250 19175 19120 19014 19036 19032 18848 18708 18706 18692 18739 18652 18547 18319 18139 18055 17914 17749 17648 17433 17286 17020 16851 16627 16344 16109 15815 15565 15548 15476 15303 15185 15195 15170 15156 15280 15139 14906 14909 14785 14710 14583 14327 14112 14103 14032 14000 13974 13975 14085 14144 14208 14232 14343 14436 15016 15002 15002 15002 15002 14978 14782 15045 15344 15558 15686 15804 15954 16045 16134 16217 16254 16252 16412 16404 16508 16448 16489 16412 16224 16257 16155 16134 16087 16021 15799 15802 15842 15592 15500 15234 15073 14993 14880 14916 14783 14664 14601 14618 14545 14458 14364 14215 13985 13789 13743 13592 13365
17454 17514 17553 17560 17569 17644 17661 17635 17564 17522 17419 17422 17414 17401 17350 17323 17174 17093 17065 16980 17003 16985 17005 16854 16818 16985 17171 17202 17311 17524 17656 17831 17936 17719 17558 17275 17090 16974 16978 16840 16656 16512 16358 16230 16488 16489 16490 16490 16490 16492 16495 15646 15782 15574 15367 15224 15114 15189 15288 15310 15263 15108 15017 15089 15090 15119 15253 15390 15430 15414 15475 15446 15337 15208 15143 15204 15168 15131 15165 15199 15217 15325 15484 15561 15761 15865 15861 15964 16094 16212 16334 16477 16654 16677 16728 16745 16823 17035 17213 17378 17494 17661 17812 18047 18201 18181 18247 18401 18597 18625 18745 18866 18985 19084 19260 19328 19421 19591 19843 19963 20093 20118 20109 20194 20302 20226 20058 20078 20060 19979 19987 19922 19870 19774 19796 19769 19716 19694 19800 19841 19815 19870 19869 19795 19778 19611 19363 19381 19311 19272 19112 19010 19031 19026 18972 18792 18638 18682 18751 18743 18760 18494 18260 18120 18038 17883 17668 17601 17444 17150 16918 16777 16532 16392 16165 15848 15479 15422 15426 15275 15151 15215 15206 15157 15216 15107 14891 14874 14748 14674 14496 14258 14090 14093 14061 13986 13941 13994 14054 14068 14070 14218 14321 15062 15023 15013 15013 15013 15006 14982 14782 14968 15249 15550 15729 15883 15935 16104 16207 16291 16298 16440 16585 16614 16659 16659 16641 16576 16416 16344 16232 16247 16198 16112 15947 15915 15905 15682 15558 15357 15208 15107 15009 14896 14842 14763 14662 14678 14640 14525 14498 14366 14137 13922 13819 13671 13639
17408 17371 17411 17430 17473 17575 17590 17423 17406 17416 17316 17391 17400 17336 17223 17235 17239 17139 16977 16870 16850 16761 16783 16701 16714 16795 16936 17060 17115 17277 17546 17611 17758 17507 17363 17228 17050 16941 16844 16713 16559 16443 16253 16218 16488 16497 16496 16496 16496 16501 16490 15691 15802 15599 15427 15331 15132 15295 15313 15334 15247 15286 15195 15197 15099 15221 15256 15355 15534 15506 15570 15535 15518 15429 15330 15333 15213 15118 15178 15224 15254 15338 15384 15513 15745 15814 15929 15976 16163 16186 16364 16466 16726 16718 16819 16865 16914 17134 17219 17355 17557 17628 17825 17864 18003 18118 18187 18372 18479 18522 18668 18777 18817 18903 19004 19162 19214 19469 19694 19775 19975 20024 20135 20109 20175 20171 20083 19986 19939 20008 19954 19864 19890 19855 19871 19814 19769 19692 19769 19721 19714 19718 19726 19803 19787 19617 19422 19473 19439 19358 19208 19017 18964 18943 18918 18768 18673 18613 18662 18689 18739 18502 18291 18068 17922 17752 17620 17523 17364 17157 16923 16804 16624 16400 16215 15861 15608 15560 15428 15276 15208 15139 15123 15159 15169 15010 14783 14679 14650 14574 14391 14161 13970 14089 14056 13998 13956 13937 14025 14138 14146 14202 14317 15071 15037 15037 15037 15037 15016 14728 14813 14985 15291 15519 15709 15868 16030 16169 16305 16402 16443 16520 16610 16699 16733 16753 16661 16597 16616 16504 16437 16275 16210 16140 16047 15983 15981 15738 15641 15483 15385 15233 15135 15034 14888 14764 14714 14663 14586 14501 14512 14439 14250 14177 14041 13986 13903
17311 17334 17286 17346 17471 17463 17395 17264 17249 17279 17277 17228 17284 17176 17196 17222 17193 17006 16931 16764 16707 16649 16635 16630 16570 16644 16781 16902 17018 17146 17368 17454 17524 17394 17293 17109 16973 16770 16598 16521 16407 16293 16226 16094 16488 16499 16505 16505 16505 16516 16548 15683 15705 15583 15569 15410 15237 15367 15416 15374 15355 15370 15281 15259 15191 15314 15330 15468 15582 15553 15636 15588 15581 15500 15407 15393 15321 15206 15180 15175 15255 15377 15413 15561 15755 15894 16004 16070 16145 16223 16362 16510 16689 16819 17000 17002 17088 17131 17273 17375 17586 17666 17807 17816 17818 17930 18016 18184 18397 18435 18516 18621 18764 18775 18839 19033 19129 19279 19475 19639 19784 19869 20045 20108 20138 20049 20008 19924 19914 19990 19991 19924 19958 19969 19891 19764 19704 19734 19651 19723 19673 19652 19668 19739 19812 19676 19517 19429 19458 19367 19193 19019 18799 18804 18809 18665 18637 18680 18688 18694 18735 18539 18311 18121 17875 17660 17479 17281 17163 17023 16916 16757 16709 16498 16185 15904 15616 15631 15534 15429 15282 15222 15143 15186 15115 14881 14699 14586 14456 14343 14330 14189 13963 14049 14026 13956 13881 13956 14077 14153 14154 14269 15078 15073 15048 15048 15048 15043 15022 14725 14803 15070 15243 15517 15676 15995 16212 16261 16284 16447 16607 16677 16736 16732 16805 16759 16736 16655 16695 16602 16603 16405 16269 16197 16100 16052 16117 15868 15721 15564 15506 15361 15216 15061 14927 14849 14748 14704 14660 14631 14563 14483 14464 14345 14187 14110 14054
17221 17248 17332 17396 17410 17330 17285 17214 17161 17148 17261 17163 17139 17118 17098 17097 17129 16972 16840 16702 16585 16557 16628 16635 16570 16593 16712 16821 16910 16988 17147 17218 17280 17103 16999 16964 16808 16603 16465 16390 16392 16245 16190 16193 16489 16504 16520 16529 16529 16543 16571 16593 15880 15694 15635 15470 15280 15440 15470 15417 15397 15273 15204 15206 15193 15278 15311 15406 15595 15578 15742 15722 15651 15610 15579 15511 15425 15317 15252 15355 15357 15414 15455 15647 15866 15985 16069 16120 16220 16272 16440 16554 16708 16853 17061 17016 17137 17259 17351 17434 17595 17651 17731 17738 17739 17847 17979 18171 18379 18362 18476 18587 18653 18775 18813 18974 19091 19149 19288 19486 19612 19685 19804 19920 20012 19955 19935 19840 19837 19934 19940 20010 19996 19960 19962 19817 19682 19746 19620 19699 19645 19677 19677 19632 19725 19678 19549 19448 19248 19162 19016 18942 18717 18694 18767 18637 18636 18640 18700 18760 18772 18580 18320 18184 17967 17732 17483 17252 17096 17018 16959 16713 16574 16295 16059 15844 15558 15587 15558 15457 15294 15291 15217 15090 15073 14952 14761 14608 14512 14373 14329 14214 13986 14008 14033 14011 13991 14132 14214 14248 14374 14400 15075 15073 15064 15064 15064 15058 15037 14843 14965 15201 15305 15511 15771 16008 16274 16337 16410 16644 16808 16817 16863 16881 16984 16858 16888 16754 16785 16657 16689 16474 16223 16185 16074 16117 16172 15927 15760 15614 15487 15387 15210 15119 14975 14869 14821 14827 14831 14660 14581 14506 14500 14452 14313 14234 14197
17116 17201 17254 17267 17274 17134 17059 17046 17139 17084 17158 17117 17003 17015 16991 17035 17007 16959 16826 16649 16565 16560 16627 16593 16528 16559 16605 16630 16750 16927 17039 17021 17080 16979 16784 16764 16719 16582 16329 16347 16276 16202 16230 16129 16489 16509 16526 16551 16551 16558 16584 16601 16068 15896 15781 15589 15313 15400 15426 15520 15539 15377 15191 15234 15176 15218 15361 15507 15581 15593 15729 15720 15696 15603 15639 15514 15457 15364 15392 15475 15438 15473 15515 15716 15860 16011 16086 16184 16226 16329 16415 16670 16835 16931 17055 17022 17105 17260 17429 17471 17556 17677 17705 17637 17614 17757 17888 18046 18281 18341 18411 18425 18544 18632 18835 18886 19014 19060 19225 19235 19344 19536 19640 19776 19984 19959 19885 19843 19856 19812 19890 19969 19963 19918 19914 19908 19789 19783 19685 19682 19745 19672 19616 19628 19720 19595 19515 19317 19148 19075 18935 18809 18756 18721 18709 18630 18626 18682 18634 18662 18727 18590 18455 18279 18017 17801 17480 17314 17101 17038 16926 16690 16483 16182 15998 15822 15585 15523 15531 15416 15346 15214 15178 15133 15011 14876 14709 14652 14484 14463 14402 14189 13998 14074 14162 14190 14092 14185 14281 14374 14489 15074 15074 15073 15073 15073 15073 15071 14762 14958 15065 15281 15401 15649 15811 16093 16370 16447 16619 16712 16885 16996 17000 17070 17053 16968 16965 16911 16815 16716 16659 16497 16299 16267 16151 16125 16147 16002 15807 15656 15584 15371 15227 15121 14997 14963 14812 14872 14908 14784 14638 14557 14546 14508 14473 14510 14421
16970 16997 17065 17104 17111 17078 16991 17045 17035 17022 16984 16963 16961 16927 16954 16940 16833 16738 16633 16530 16485 16481 16491 16529 16492 16506 16577 16638 16740 16818 16890 16988 16983 16795 16626 16624 16464 16326 16212 16177 16126 16135 16210 16113 16108 16522 16541 16566 16575 16575 16590 16602 16604 16018 15824 15674 15484 15502 15478 15477 15444 15403 15212 15297 15271 15380 15420 15493 15595 15616 15825 15778 15764 15772 15756 15585 15587 15537 15488 15428 15428 15569 15633 15821 15929 16057 16251 16213 16278 16355 16421 16634 16789 16879 16894 17059 17096 17240 17338 17528 17557 17604 17610 17631 17598 17772 17864 18008 18263 18288 18410 18443 18504 18653 18827 18826 18822 18924 18965 19077 19261 19429 19467 19592 19809 19857 19922 19847 19954 19912 19973 20030 19948 20018 19944 19880 19894 19863 19805 19706 19718 19707 19613 19647 19664 19601 19491 19330 19059 19017 18896 18777 18729 18711 18692 18564 18540 18532 18575 18619 18548 18429 18386 18237 17997 17778 17641 17403 17132 16978 16826 16620 16455 16298 16060 15794 15618 15664 15592 15498 15471 15364 15291 15178 14978 14916 14682 14638 14641 14538 14378 14257 14045 14085 14153 14158 14039 14234 14350 14461 14485 15073 15074 15075 15075 15075 15075 15076 14872 14940 15128 15304 15412 15661 15805 16015 16310 16533 16647 16797 16888 17037 17045 17060 17118 17106 16988 16958 16788 16710 16532 16534 16361 16309 16178 16147 16090 15896 15790 15720 15648 15509 15324 15136 15052 14971 14891 14872 14949 14863 14635 14616 14501 14509 14604 14558 14515
16767 16825 16850 17017 17065 17006 16846 16876 16862 16900 16895 16939 16953 16895 16893 16738 16681 16602 16429 16439 16408 16327 16336 16307 16359 16496 16533 16581 16687 16792 16795 16855 16890 16710 16543 16419 16286 16177 16043 15935 15956 16073 16147 16149 16175 16282 16560 16584 16590 16591 16591 16600 16600 16596 15939 15732 15641 15586 15618 15491 15475 15409 15273 15321 15326 15400 15450 15614 15668 15708 15817 15862 15827 15827 15796 15676 15609 15682 15652 15580 15450 15650 15776 15845 16012 16128 16327 16361 16452 16436 16540 16601 16764 16792 16807 16991 17083 17246 17376 17534 17569 17562 17469 17540 17573 17717 17798 17965 18220 18223 18355 18432 18502 18659 18743 18733 18730 18744 18823 19037 19140 19203 19299 19479 19708 19726 19838 19916 20008 19955 19971 19993 20042 20044 20084 19966 19920 19912 19867 19728 19708 19775 19717 19739 19709 19587 19486 19263 19050 18930 18784 18775 18771 18679 18664 18517 18451 18525 18483 18456 18490 18362 18292 18210 18065 17878 17719 17477 17271 16957 16733 16571 16445 16305 16150 15877 15732 15746 15692 15609 15513 15360 15290 15098 14987 14909 14775 14745 14739 14545 14421 14193 14046 14017 14037 14001 14077 14281 14444 14517 15087 15077 15076 15076 15076 15074 15075 14927 14970 15009 15088 15223 15434 15623 15748 16001 16297 16477 16560 16735 16918 17007 17129 17205 17165 17144 17016 16951 16855 16725 16524 16517 16446 16309 16294 16177 16059 15946 15842 15820 15673 15579 15471 15252 15086 15008 14949 14930 14917 14867 14706 14587 14544 14600 14690 14717 14670
16771 16794 16801 16946 17068 16888 16818 16847 16743 16729 16788 16888 16848 16888 16838 16718 16570 16431 16340 16375 16261 16199 16273 16327 16330 16406 16516 16506 16557 16655 16646 16636 16700 16582 16402 16245 16205 16030 15943 15887 15956 15953 16089 16054 16086 16201 16571 16593 16597 16595 16595 16598 16596 16592 15952 15818 15692 15651 15645 15626 15581 15544 15353 15417 15452 15430 15525 15617 15673 15767 15810 15856 15845 15852 15847 15786 15698 15646 15657 15544 15521 15671 15842 15945 16082 16176 16227 16342 16443 16475 16574 16742 16806 16868 16884 17007 17029 17184 17300 17414 17418 17484 17444 17525 17639 17730 17824 17959 18103 18183 18346 18373 18449 18594 18747 18743 18722 18759 18848 19048 19128 19198 19409 19595 19694 19821 19958 20042 20117 20030 20047 20079 20054 20106 20038 20068 19985 19869 19885 19779 19769 19774 19638 19653 19580 19492 19374 19331 19173 19001 18866 18892 18858 18668 18617 18586 18449 18492 18511 18452 18495 18368 18273 18220 18092 17895 17699 17486 17298 17152 16929 16744 16559 16327 16170 15934 15737 15676 15655 15575 15498 15463 15353 15195 15042 14943 14838 14781 14745 14580 14397 14295 14105 14124 14185 14127 14247 14336 14382 14480 15096 15085 15081 15081 15081 15074 15074 14942 15077 15135 15217 15330 15473 15760 15949 16116 16364 16538 16618 16722 16890 17127 17251 17280 17261 17219 17139 17061 16993 16850 16699 16579 16553 16444 16393 16210 16129 16090 15954 15874 15697 15635 15484 15449 15375 15223 15043 15008 15020 14913 14798 14765 14724 14779 14825 14833 14880
16725 16821 16874 16899 16981 16851 16771 16788 16707 16706 16738 16821 16841 16791 16742 16643 16476 16384 16370 16251 16219 16157 16213 16271 16229 16336 16401 16467 16536 16418 16417 16373 16431 16371 16255 16139 16027 15988 15940 15844 15854 15902 16019 16061 16106 16194 16215 16605 16604 16599 16590 16590 16586 16579 16560 15936 15779 15701 15682 15699 15656 15590 15497 15496 15495 15596 15574 15672 15645 15707 15853 15882 15826 15802 15774 15764 15767 15650 15559 15546 15484 15651 15829 15949 16096 16191 16173 16220 16317 16455 16522 16742 16963 16963 17072 17029 17039 17119 17266 17280 17324 17294 17361 17546 17614 17715 17763 17938 18070 18118 18247 18237 18288 18487 18740 18818 18816 18883 18926 18974 19086 19311 19448 19620 19692 19866 19955 20049 20159 20196 20114 20085 19984 20063 20062 20061 20073 19923 19854 19814 19790 19691 19526 19552 19538 19477 19328 19311 19195 19091 18904 18821 18830 18732 18674 18677 18572 18534 18478 18448 18515 18340 18267 18197 18080 17938 17712 17506 17307 17205 16999 16874 16700 16393 16111 15941 15659 15680 15692 15617 15500 15423 15294 15142 15049 14974 14977 14882 14661 14507 14408 14387 14254 14263 14369 14283 14303 14354 14362 15116 15101 15090 15088 15088 15084 15074 15074 14980 15136 15211 15384 15444 15518 15822 16027 16145 16389 16556 16698 16816 16983 17143 17257 17422 17462 17306 17209 17117 17049 16920 16865 16781 16755 16585 16400 16398 16316 16153 15963 15909 15756 15707 15618 15602 15543 15376 15235 15093 15048 14982 14863 14949 14932 14872 14879 14973 14984
16655 16657 16795 16838 16840 16747 16765 16823 16705 16691 16687 16760 16775 16752 16740 16665 16548 16464 16372 16275 16265 16220 16298 16278 16183 16239 16385 16407 16403 16352 16234 16271 16234 16236 16164 16063 15961 15881 15768 15727 15718 15806 15910 15946 16046 16103 16203 16219 16604 16596 16578 16568 16568 16558 16533 16491 15714 15822 15803 15798 15780 15680 15617 15578 15630 15705 15638 15727 15627 15661 15756 15879 15875 15799 15784 15685 15687 15639 15677 15587 15551 15724 15773 15992 16058 16178 16177 16199 16336 16486 16606 16805 16941 17013 17092 17010 17055 17104 17221 17199 17233 17267 17291 17443 17544 17687 17709 17941 18024 18150 18150 18207 18272 18453 18700 18705 18748 18853 19016 19127 19212 19359 19442 19558 19708 19796 19917 19978 20102 20101 20188 20122 20020 20137 20206 20196 20206 20053 19999 19907 19795 19715 19536 19471 19402 19288 19214 19223 19211 19043 18859 18846 18821 18778 18804 18657 18625 18648 18518 18583 18541 18368 18206 18142 17949 17824 17670 17611 17464 17227 17056 16881 16780 16407 16085 15775 15550 15495 15585 15586 15446 15371 15359 15215 15219 15070 14997 14851 14618 14627 14553 14479 14459 14464 14463 14496 14452 14459 14411 15136 15116 15106 15106 15106 15088 15075 14907 15010 15155 15262 15412 15397 15498 15696 15958 16097 16281 16555 16726 16893 17026 17233 17382 17425 17592 17512 17374 17368 17296 17170 17018 16948 16915 16710 16559 16434 16386 16279 16134 16011 15912 15820 15844 15851 15759 15560 15346 15214 15158 15036 15036 15036 15001 14992 15000 14987 15046
16557 16593 16621 16669 16743 16750 16807 16842 16756 16743 16665 16609 16617 16597 16669 16551 16521 16334 16259 16309 16242 16322 16317 16230 16159 16240 16365 16389 16322 16272 16152 16069 16079 16090 16043 15867 15792 15657 15564 15545 15567 15726 15834 15952 16048 16151 16173 16210 16158 16592 16569 16545 16545 16545 16517 16473 15750 15850 15961 15882 15930 15890 15843 15776 15716 15796 15771 15740 15646 15674 15721 15787 15922 15812 15747 15743 15728 15650 15690 15739 15716 15693 15789 15982 16110 16093 16181 16237 16308 16507 16599 16751 16908 16888 16997 17018 16986 17121 17181 17227 17155 17217 17328 17392 17420 17623 17734 17899 18077 18097 18094 18173 18312 18401 18609 18698 18706 18870 19070 19199 19253 19344 19379 19614 19758 19800 19930 19946 20086 20106 20143 20085 20142 20151 20288 20246 20240 20243 20194 20082 19916 19788 19559 19427 19345 19258 19126 19162 19122 18991 18916 18850 18887 18924 18846 18762 18751 18708 18608 18574 18445 18339 18165 17969 17902 17767 17676 17586 17563 17342 17145 16977 16755 16431 16057 15695 15401 15421 15547 15503 15460 15483 15511 15387 15324 15106 15017 14828 14631 14641 14642 14649 14581 14635 14573 14547 14517 14499 14461 15149 15126 15120 15120 15120 15091 15077 14963 15092 15209 15246 15403 15474 15516 15737 15987 16098 16257 16496 16642 16821 17056 17249 17463 17539 17721 17633 17517 17474 17421 17265 17157 17095 16992 16829 16664 16635 16555 16442 16341 16111 16002 15999 16013 16000 15872 15726 15483 15342 15201 15210 15135 15167 15095 15009 15012 15099 15104
16568 16543 16585 16595 16622 16616 16711 16759 16686 16647 16523 16621 16680 16679 16694 16684 16617 16548 16351 16321 16314 16294 16358 16251 16141 16171 16283 16169 16122 16144 16064 15954 15963 15942 15901 15840 15664 15568 15475 15530 15480 15598 15843 15929 16021 16170 16161 16246 16138 16584 16556 16496 16496 16496 16483 16436 15768 15837 15902 15794 15806 15746 15738 15739 15839 15872 15776 15733 15639 15569 15634 15717 15891 15825 15796 15668 15676 15710 15627 15646 15699 15715 15816 15990 16085 16133 16124 16225 16282 16426 16569 16752 16967 16965 17000 17023 16940 17021 17114 17153 17158 17176 17188 17345 17436 17622 17692 17849 18071 18074 18117 18126 18275 18438 18586 18669 18694 18886 19045 19105 19239 19291 19416 19542 19703 19730 19871 20033 20150 20161 20181 20137 20076 20082 20173 20209 20265 20149 20130 20012 19910 19780 19628 19403 19244 19245 19220 19097 19030 18928 18894 18876 18779 18761 18770 18646 18639 18620 18595 18507 18342 18201 18118 17916 17854 17793 17728 17644 17464 17272 17180 16886 16684 16406 16059 15609 15296 15404 15567 15446 15437 15531 15544 15483 15371 15272 15147 14943 14710 14680 14628 14668 14587 14577 14531 14547 14607 14622 15250 15177 15158 15158 15158 15145 15101 14986 15092 15125 15171 15284 15402 15415 15582 15780 15890 16000 16260 16472 16635 16823 17005 17228 17339 17554 17682 17588 17614 17472 17442 17463 17324 17240 17093 16903 16733 16788 16776 16586 16462 16253 16168 16204 16140 16098 16056 15906 15751 15528 15435 15366 15353 15260 15214 15233 15190 15212 15173
16592 16571 16486 16532 16488 16587 16655 16657 16619 16575 16503 16573 16669 16710 16695 16711 16758 16676 16563 16507 16443 16435 16353 16300 16249 16242 16285 16141 16041 15910 15897 15890 15796 15748 15771 15710 15620 15622 15513 15451 15395 15553 15733 15840 15980 16131 16198 16237 16226 16115 16547 16465 16465 16465 16465 16417 15815 15858 15883 15844 15786 15725 15733 15852 15868 15837 15727 15685 15581 15533 15558 15635 15794 15782 15759 15649 15626 15679 15669 15694 15669 15681 15819 15929 16115 16116 16180 16188 16325 16490 16636 16848 16993 16946 16926 16944 16958 17012 16981 16979 17071 17138 17159 17205 17370 17603 17765 17946 18024 18071 18239 18152 18182 18353 18564 18640 18633 18833 19019 19182 19262 19371 19517 19564 19684 19775 19922 20135 20239 20136 20162 20057 19985 20135 20167 20256 20222 20136 19991 19938 19987 19903 19707 19518 19232 19155 19205 19132 18981 18914 18785 18783 18736 18732 18606 18635 18645 18677 18658 18495 18368 18182 18068 17865 17788 17745 17700 17597 17460 17258 17147 16903 16652 16323 15982 15603 15255 15392 15461 15408 15453 15430 15534 15486 15526 15366 15217 15080 14872 14814 14673 14658 14673 14629 14565 14570 14611 14671 15265 15192 15192 15192 15192 15162 15115 15164 15237 15185 15155 15301 15418 15452 15564 15700 15790 15955 16166 16450 16661 16869 17052 17164 17302 17546 17708 17633 17613 17597 17498 17571 17528 17370 17294 17050 16924 16874 16883 16711 16642 16514 16343 16283 16266 16195 16128 16016 15917 15782 15627 15582 15547 15522 15377 15308 15245 15333 15345
16626 16573 16479 16498 16425 16432 16470 16441 16477 16481 16500 16497 16601 16741 16766 16837 16865 16819 16689 16566 16534 16437 16388 16317 16240 16211 16180 16128 15940 15810 15780 15679 15622 15639 15620 15702 15621 15581 15511 15416 15380 15598 15692 15784 15953 16042 16165 16125 16139 16112 16520 16415 16395 16395 16395 16378 16259 15761 15847 15791 15737 15740 15700 15806 15863 15828 15747 15694 15614 15502 15534 15667 15726 15752 15684 15654 15692 15643 15757 15786 15772 15759 15946 16089 16158 16222 16195 16331 16384 16515 16593 16717 16902 16999 17032 16959 17036 17006 17012 16998 17020 17107 17278 17312 17439 17573 17683 17823 18053 18070 18258 18233 18163 18268 18429 18563 18624 18816 19004 19042 19107 19316 19414 19484 19602 19840 19982 20051 20231 20142 20123 20064 19919 20017 20086 20096 20119 20034 19949 19960 19942 19845 19635 19422 19217 19123 19103 19017 18897 18853 18780 18749 18675 18737 18692 18692 18707 18649 18641 18478 18424 18286 18105 17981 17845 17802 17672 17491 17405 17205 17008 16761 16608 16278 15973 15673 15264 15382 15555 15597 15609 15577 15541 15498 15502 15349 15300 15015 14825 14839 14732 14760 14643 14583 14550 14588 14557 14646 15291 15232 15232 15232 15232 15174 15166 15170 15285 15248 15204 15343 15430 15512 15587 15668 15784 15977 16211 16438 16624 16759 16972 17193 17345 17583 17776 17775 17682 17639 17516 17629 17579 17537 17398 17237 17073 16976 16940 16856 16672 16605 16428 16335 16333 16261 16289 16148 15986 15975 15806 15720 15662 15631 15495 15441 15415 15425 15502
16723 16617 16495 16406 16427 16347 16360 16358 16425 16431 16484 16512 16656 16748 16840 16822 16851 16864 16850 16718 16699 16557 16448 16399 16327 16215 16189 16099 15900 15679 15571 15549 15447 15469 15593 15614 15598 15613 15598 15495 15353 15525 15644 15776 15846 15890 16025 16072 16122 16188 16176 16379 16337 16337 16337 16337 16232 15754 15703 15707 15789 15797 15726 15790 15824 15811 15788 15755 15623 15545 15588 15649 15611 15679 15687 15726 15685 15656 15748 15825 15815 15865 15981 16107 16262 16298 16310 16409 16430 16463 16566 16707 16895 17020 17031 17044 17031 16978 16947 16947 17073 17146 17312 17343 17487 17567 17647 17824 18024 18092 18188 18179 18231 18280 18414 18573 18720 18904 18984 19064 19060 19166 19389 19548 19632 19797 19953 19989 20138 20151 20136 20095 19938 19921 20002 20053 20128 20045 19956 19973 19874 19815 19671 19459 19285 19203 18999 18900 18878 18788 18806 18738 18615 18675 18694 18698 18686 18652 18551 18508 18534 18327 18059 17940 17793 17749 17621 17519 17431 17129 16924 16723 16609 16369 16082 15746 15365 15481 15596 15677 15641 15627 15580 15592 15482 15420 15301 15109 14899 14833 14700 14757 14703 14627 14595 14655 14613 14641 15304 15275 15275 15275 15275 15202 15156 15263 15252 15255 15251 15332 15494 15539 15666 15695 15841 16106 16250 16376 16582 16802 16958 17243 17446 17603 17875 17859 17863 17755 17639 17656 17709 17653 17604 17471 17266 17115 17030 16942 16739 16684 16558 16488 16365 16353 16331 16188 16111 16100 15973 15942 15874 15682 15614 15566 15509 15613 15641
16523 16353 16261 16250 16220 16224 16155 16148 16171 16269 16278 16309 16464 16615 16685 16660 16704 16675 16674 16605 16638 16598 16467 16401 16220 16176 16091 15942 15874 15758 15528 15458 15302 15407 15522 15450 15548 15522 15433 15389 15262 15359 15492 15661 15715 15821 15846 15974 16045 16105 16085 16360 16269 16269 16269 16269 16179 15787 15733 15782 15788 15715 15679 15622 15678 15613 15600 15558 15516 15484 15413 15473 15483 15589 15636 15661 15710 15634 15668 15691 15701 15768 15901 16007 16214 16198 16259 16307 16355 16504 16513 16699 16843 16920 17038 17055 17151 17168 17066 17058 17038 17138 17369 17458 17523 17704 17781 17960 18105 18171 18320 18359 18383 18503 18621 18794 18934 19065 19099 19116 19138 19351 19461 19559 19652 19800 19889 20061 20104 20020 19961 19912 19886 19890 19983 20031 20025 19991 20041 19947 19940 19894 19777 19602 19351 19625 19598 19545 19518 19464 19410 19383 19329 19301 19248 18705 18666 18671 18601 18511 18535 18284 18133 17947 17778 17668 17564 17535 17499 17178 16875 16807 16634 16359 16086 15834 15435 15539 15674 15639 15661 15643 15620 15559 15524 15440 15397 15219 15116 14993 14904 14830 14804 14824 14846 14771 14789 14831 15330 15316 15316 15316 15316 15217 15192 15235 15360 15278 15290 15400 15585 15639 15602 15740 15906 16139 16257 16478 16588 16840 16991 17185 17420 17627 17904 17864 17764 17691 17532 17509 17558 17576 17578 17386 17241 17005 16842 16799 16701 16652 16510 16471 16371 16343 16238 16137 16009 16016 15888 15906 15839 15725 15504 15549 15502 15652 15672
16223 16199 16084 16107 16025 16054 16055 16061 15949 16108 16190 16237 16277 16405 16526 16606 16638 16631 16557 16493 16491 16490 16398 16297 16160 16133 16081 15880 15776 15700 15559 15386 15115 15193 15348 15326 15396 15328 15306 15284 15229 15294 15424 15517 15665 15706 15722 15892 15949 15919 15980 16321 16197 16197 16197 16197 16148 15730 15781 15776 15788 15667 15601 15529 15569 15478 15437 15398 15352 15345 15357 15341 15325 15445 15602 15620 15609 15631 15622 15537 15566 15733 15807 15941 16112 16269 16301 16291 16407 16482 16545 16634 16767 16797 16944 17071 17221 17275 17237 17150 17115 17203 17409 17557 17636 17829 17919 18011 18126 18255 18390 18407 18434 18584 18747 18944 19072 19152 19221 19259 19294 19403 19413 19562 19597 19699 19828 20026 20196 20040 19912 19844 19805 19830 19973 19984 19962 19973 20050 19954 19965 19910 19896 19842 19815 19761 19734 19653 19572 19491 19410 19332 19255 19184 19116 19094 19051 19031 18989 18527 18495 18328 18109 17994 17793 17683 17616 17633 17578 17224 16937 16862 16723 16372 16078 15826 15523 15689 15756 15658 15672 15640 15580 15570 15441 15479 15403 15312 15278 15160 15003 14948 14964 14979 14985 14891 14894 14918 15357 15357 15357 15357 15357 15107 15223 15264 15412 15423 15408 15512 15683 15716 15650 15726 15923 16135 16348 16447 16582 16828 16992 17191 17337 17579 17889 17763 17592 17552 17409 17369 17456 17528 17490 17337 17160 16937 16752 16767 16728 16647 16545 16387 16303 16310 16221 16083 15969 15878 15856 15807 15842 15654 15456 15459 15488 15602 15733
16022 15967 15860 15841 15805 15791 15818 15737 15737 15821 15958 16065 16168 16276 16356 16410 16472 16497 16405 16432 16459 16372 16340 16161 16074 16054 16030 15784 15684 15567 15394 15179 14966 15104 15199 15265 15335 15281 15283 15261 15086 15138 15273 15393 15617 15658 15609 15756 15722 15751 15845 16301 16144 16113 16113 16113 16086 15897 15710 15701 15607 15604 15512 15438 15482 15387 15419 15309 15216 15236 15180 15186 15205 15297 15472 15539 15524 15497 15512 15487 15485 15626 15772 15896 16084 16223 16380 16401 16360 16463 16483 16582 16737 16832 16987 17119 17268 17282 17264 17265 17217 17434 17605 17626 17763 17926 18109 18150 18231 18304 18516 18584 18649 18752 18901 19048 19165 19189 19170 19198 19309 19455 19468 19564 19683 19707 19840 19971 20143 19975 19968 19919 19827 19840 19961 19954 19918 19902 19887 20144 20100 20076 20026 19973 19922 19815 19761 19653 19572 19491 19410 19332 19255 19184 19116 19050 18986 18921 18877 18854 18810 18788 18120 18047 17904 17762 17668 17662 17490 17269 16939 16848 16793 16466 16119 15907 15681 15762 15796 15805 15726 15718 15612 15617 15538 15439 15444 15334 15399 15303 15109 15144 15129 15103 14950 15003 15014 15027 15396 15396 15396 15396 15396 15327 15408 15414 15486 15498 15474 15597 15796 15816 15705 15909 16023 16217 16304 16509 16678 16854 16960 17141 17324 17616 17783 17685 17643 17534 17403 17427 17398 17384 17273 17194 17108 16905 16706 16710 16669 16548 16438 16394 16387 16318 16211 16203 16096 15978 15825 15747 15818 15661 15495 15417 15492 15556 15671
15714 15588 15543 15504 15542 15517 15473 15454 15536 15644 15826 16007 16098 16185 16260 16264 16234 16237 16224 16300 16347 16258 16217 16158 16015 15919 15903 15709 15564 15366 15278 15000 14823 14921 15101 15118 15220 15240 15219 15140 15052 15111 15161 15322 15526 15502 15589 15636 15568 15566 15659 15619 16089 16023 16023 16023 16023 15856 15536 15477 15545 15508 15418 15344 15394 15389 15322 15273 15122 15039 15057 15090 15214 15207 15323 15312 15346 15393 15344 15389 15372 15502 15623 15911 16122 16271 16359 16354 16420 16443 16545 16573 16626 16773 16973 17038 17227 17347 17344 17354 17406 17570 17733 17756 17907 18053 18175 18198 18303 18435 18585 18685 18808 18857 18996 19035 19914 19927 19941 19973 19988 20043 20068 20100 20130 20155 20179 20203 20227 20246 20262 20273 20281 20283 20281 20279 20270 20262 20244 20221 20179 20133 20069 19973 19922 19815 19761 19653 19572 19491 19410 19332 19255 19184 19116 19050 18986 18921 18856 18813 18769 18748 18708 18688 17998 17933 17746 17669 17489 17228 17033 16901 16755 16478 16164 15911 15759 15798 15789 15906 15899 15772 15752 15692 15531 15464 15486 15439 15513 15422 15223 15213 15179 15136 15036 15060 15044 15075 15434 15434 15434 15434 15434 15405 15514 15480 15548 15584 15606 15683 15833 15893 15882 15944 16037 16155 16383 16550 16714 16884 16946 17128 17353 17598 17719 17658 17649 17546 17376 17404 17386 17318 17165 17065 16951 16849 16722 16702 16641 16563 16442 16354 16394 16288 16216 16198 16135 15959 15848 15795 15763 15571 15465 15466 15524 15548 15585
15649 15508 15420 15408 15344 15294 15250 15301 15445 15560 15723 15841 16009 16069 16046 16054 16080 16076 16029 16085 16060 16022 15966 15908 15776 15714 15703 15556 15405 15326 15207 14997 14757 14840 14932 15107 15180 15079 15095 15055 14876 15028 15024 15227 15371 15312 15287 15245 15261 15362 15455 15493 16060 15916 15916 15916 15916 15772 15548 15413 15442 15492 15436 15328 15279 15256 15170 15142 15054 14974 15045 15094 15183 15082 15176 15163 15236 15243 15198 15273 15257 15389 15587 15756 15963 16137 16180 16292 16370 16480 16599 16637 16639 16811 17033 17030 17135 17219 17243 17452 17527 17622 17772 17802 17912 18040 18295 18360 18424 18477 18642 18771 18905 19006 19805 19842 19871 19884 19899 19945 19988 20043 20068 20100 20130 20155 20179 20203 20227 20246 20262 20273 20281 20283 20281 20279 20270 20262 20244 20221 20179 20133 20069 19973 19922 19815 19761 19653 19572 19491 19410 19332 19255 19184 19116 19050 18986 18921 18856 18792 18708 18687 18646 18626 18584 17848 17813 17679 17521 17245 17077 16931 16792 16481 16200 15905 15725 15786 15788 15889 15892 15764 15747 15728 15656 15638 15502 15542 15580 15461 15298 15329 15293 15154 15037 15153 15131 15210 15475 15475 15475 15475 15475 15361 15446 15552 15603 15642 15707 15775 15783 15854 15854 15889 16005 16094 16276 16378 16582 16776 16921 17061 17292 17475 17708 17615 17475 17424 17292 17258 17094 17062 16975 16908 16741 16628 16554 16449 16437 16287 16267 16273 16198 16176 16062 15993 15958 15810 15761 15775 15690 15612 15484 15539 15524 15628 15681
15503 15437 15367 15198 15094 15107 15152 15295 15350 15437 15616 15737 15908 15896 15931 16004 16020 15917 15880 15838 15850 15774 15749 15620 15537 15426 15429 15297 15288 15184 15080 14857 14605 14746 14794 14990 15072 15008 15072 14912 14815 14864 14853 15007 15173 15153 15098 15037 15027 15136 15296 15343 15996 15804 15804 15804 15804 15728 15455 15426 15422 15351 15341 15176 15121 15039 15021 14936 14899 14970 15031 15092 15052 15013 14992 14995 15081 15118 15153 15184 15108 15338 15516 15677 15772 15923 16009 16158 16416 16513 16607 16699 16718 16886 17004 17005 17119 17163 17235 17468 17590 17693 17888 17909 17912 18081 18324 18355 18474 18661 18742 18810 18924 19714 19758 19799 19832 19847 19881 19945 19988 20043 20068 20100 20130 20155 20179 20203 20227 20246 20262 20273 20281 20283 20281 20279 20270 20262 20244 20221 20179 20133 20069 19973 19922 19842 19815 19761 19707 19680 19050 19178 19156 19114 19094 19050 18986 18921 18856 18792 18708 18640 18598 18576 18531 18478 17764 17673 17553 17272 17010 16922 16856 16503 16205 15984 15699 15788 15808 15796 15843 15776 15803 15786 15696 15694 15566 15620 15582 15445 15335 15299 15288 15251 15122 15159 15096 15137 15515 15515 15515 15515 15515 15363 15462 15581 15656 15725 15759 15820 15799 15887 15928 15956 16015 16161 16258 16329 16504 16637 16858 16957 17136 17367 17622 17466 17335 17222 17155 17057 16916 16898 16832 16718 16658 16512 16269 16164 16122 16072 16122 16113 15998 15957 15983 15961 15903 15737 15694 15686 15649 15661 15608 15621 15641 15748 15881
15229 15243 15101 15062 14972 14960 15018 15102 15180 15407 15630 15715 15766 15837 15935 16030 16050 15878 15729 15688 15703 15616 15575 15456 15371 15332 15231 15174 15037 14974 14908 14803 14588 14690 14773 14889 14964 14951 14961 14915 14835 14869 14784 14941 14996 14943 14903 14884 14842 14955 15208 15261 15966 15675 15675 15675 15675 15634 15314 15299 15311 15240 15125 15049 15017 14987 14949 14898 14850 14941 15077 15059 15016 14942 14899 14862 14958 15031 15024 15044 15158 15318 15477 15673 15703 15835 15980 16107 16375 16465 16451 16617 16672 16794 16869 16875 17025 17092 17218 17438 17695 17750 17875 17988 18054 18230 18480 18468 18664 18687 18776 18907 19616 19665 19711 19754 19789 19827 19881 19945 19988 20043 20068 20100 20130 20155 20179 20203 20227 20246 20262 20273 20281 20283 20281 20279 20270 20262 20244 20221 20179 20133 20093 20052 20028 19979 19953 19461 19357 19273 19254 19255 19192 19059 18944 18921 18899 18854 18833 18792 18708 18640 18547 18524 18476 18422 18366 17617 17416 17303 17073 16895 16827 16550 16348 16088 15796 15810 15724 15695 15747 15753 15805 15774 15725 15696 15609 15631 15692 15550 15310 15244 15232 15241 15126 15088 15121 15086 15543 15543 15543 15543 15543 15334 15370 15429 15522 15713 15738 15787 15854 15829 15899 15894 15967 16125 16195 16321 16467 16553 16640 16835 16947 17161 17419 17298 17251 17240 17081 16911 16849 16752 16690 16612 16534 16334 16109 16010 15982 16003 15960 15913 15933 15847 15788 15733 15717 15685 15679 15659 15686 15644 15586 15692 15730 15771 15904
