8569 8429 8216 8215 8125 8157 8206 8122 7977 8088 8225 8368 8415 8453 8550 8447 8390 8516 8648 8708 8773 8802 8877 8991 9038 9106 9226 9261 9285 9390 9536 9605 9801 9711 9716 9753 9855 9909 9890 9996 10016 9925 9834 9766 9808 9895 9901 10067 10086 10161 10271 10437 10504 10570 10705 10932 11111 11069 11081 11129 11295 11415 11442 11573 11535 11796 11922 12007 12185 12246 12430 12499 12580 12573 13079 13004 13004 13004 13004 12991 13232 13319 13413 13567 13673 13816 14016 14095 14178 14207 14294 14327 14416 14370 14363 14461 14542 14640 14864 14979 15159 15325 15345 15504 15704 15822 16063 16314 16558 16788 17024 17341 17490 17775 17963 18131 18426 18646 18828 19079 19301 19489 19586 19686 19847 20073 20215 20242 20324 20383 20417 20378 20451 20580 20571 20536 20446 20647 20828 20873 20972 21070 21123 21327 21495 21428 21450 21477 21505 21481 21391 21471 21511 21315 21260 21140 21101 20923 20819 20768 20710 20847 20903 20888 20955 20939 20987 20910 20853 20831 20861 20856 20997 20977 20951 20924 20899 20828 20802 20766 20787 20689 20556 20491 20349 20228 20015 19932 19922 19919 19953 19789 19732 19728 19691 19675 19737 19768 19691 19794 19897 19900 19905 19903 19909 19870 19878 19793 19781 19802 19760 19693 19598 19407 19266 19239 19084 19016 18925 18972 18835 18926 18860 18881 18865 19050 19302 20002 20087 20106 20106 20106 20123 20216 20377 20365 20446 20541 20605 20608 20628 20744 20830 20852 20912 20892 20960 20928 20970 21074 21036 21104 21086 21234 21267 21204 21189
8542 8418 8233 8150 8176 8176 8184 8047 7971 8064 8125 8226 8443 8582 8616 8595 8489 8570 8590 8618 8626 8665 8780 8945 9134 9202 9293 9308 9341 9416 9528 9677 9755 9756 9651 9794 9854 9959 9996 9958 9913 9807 9767 9774 9858 9960 9995 10162 10258 10291 10423 10627 10705 10769 10943 11008 11068 11125 11151 11156 11277 11331 11389 11482 11530 11772 11913 12071 12135 12177 12239 12355 12460 12451 12536 12968 12968 12968 12968 12968 13223 13407 13473 13473 13593 13751 13962 14058 14161 14169 14242 14338 14343 14343 14292 14456 14542 14627 14733 14870 15105 15216 15314 15516 15594 15791 16003 16327 16545 16781 17047 17273 17513 17673 17952 18204 18412 18589 18894 19086 19211 19409 19527 19684 19819 20074 20260 20369 20468 20449 20380 20380 20405 20566 20627 20546 20471 20604 20857 20976 21038 21031 21111 21234 21466 21479 21505 21537 21527 21443 21360 21347 21379 21250 21104 20983 20966 20807 20652 20644 20559 20705 20792 20844 20770 20776 20836 20747 20764 20710 20730 20735 20862 20903 20881 20795 20787 20831 20769 20778 20680 20597 20514 20345 20243 20161 19955 19836 19751 19805 19768 19667 19537 19576 19545 19546 19610 19676 19618 19646 19793 19761 19840 19820 19832 19780 19824 19710 19683 19687 19750 19612 19594 19452 19369 19193 19137 19128 19064 19121 19053 18941 18910 18884 18910 19092 19378 19980 20058 20058 20058 20058 20104 20428 20545 20509 20515 20568 20587 20700 20723 20887 20930 20948 20939 20949 20925 20886 20920 20983 21032 21097 21150 21151 21098 21003 21027
8500 8349 8289 8184 8175 8135 8178 8028 8039 8092 8127 8347 8501 8547 8516 8611 8552 8589 8506 8585 8621 8738 8765 8984 9112 9184 9109 9212 9229 9334 9380 9489 9711 9712 9719 9786 9964 9980 9884 9945 9947 9855 9803 9859 9968 10109 10128 10197 10268 10362 10591 10662 10846 10791 10896 10989 11076 11154 11231 11253 11393 11394 11465 11596 11629 11721 11914 11995 12154 12165 12217 12350 12333 12447 12550 12943 12934 12934 12934 12934 12876 13254 13451 13472 13554 13740 13944 14030 14181 14160 14253 14161 14210 14254 14270 14314 14414 14552 14660 14846 14944 15140 15234 15370 15513 15835 16087 16366 16591 16888 17083 17308 17584 17784 18019 18268 18496 18600 18730 18978 19125 19287 19364 19519 19730 19970 20212 20336 20504 20467 20334 20448 20406 20577 20614 20641 20638 20712 20770 20890 20989 21006 21136 21355 21459 21437 21462 21463 21424 21330 21273 21282 21380 21249 21001 20979 20840 20658 20508 20478 20483 20524 20649 20722 20701 20561 20551 20524 20654 20629 20542 20610 20664 20670 20726 20729 20658 20638 20540 20635 20602 20459 20412 20362 20267 20085 19875 19754 19537 19609 19540 19507 19386 19463 19437 19424 19492 19521 19578 19690 19744 19752 19893 19813 19846 19794 19695 19675 19644 19585 19595 19528 19467 19387 19307 19276 19141 19082 19097 19093 19149 19059 18908 18924 19002 19241 19489 19972 20011 20011 20011 20011 20064 20618 20679 20653 20664 20723 20742 20749 20685 20873 20939 20993 20934 20890 20910 20858 20865 20975 20965 21024 21097 21174 21146 21086 21039
8511 8377 8281 8241 8295 8198 8166 8086 8006 8188 8258 8464 8603 8487 8499 8568 8591 8586 8518 8605 8680 8766 8859 9046 9149 9096 9051 9137 9192 9260 9283 9423 9616 9600 9707 9908 10014 9935 9879 9881 9882 9848 9874 9947 10094 10183 10146 10198 10292 10511 10682 10762 10888 10902 10940 10961 11110 11265 11344 11450 11493 11484 11601 11639 11663 11733 11794 11967 12169 12283 12323 12352 12263 12408 12464 12931 12907 12907 12907 12907 12866 13256 13305 13460 13629 13783 13877 14044 14215 14189 14251 14102 14053 14109 14279 14359 14324 14419 14474 14661 14857 14951 15097 15306 15412 15759 16101 16332 16622 16900 17077 17439 17689 17987 18168 18389 18484 18538 18665 18851 18920 19063 19281 19466 19758 19932 20165 20422 20570 20462 20385 20431 20420 20472 20624 20593 20684 20764 20746 20854 21035 21096 21266 21392 21576 21482 21456 21386 21243 21137 21159 21167 21284 21122 20992 20873 20672 20632 20493 20441 20406 20466 20587 20502 20540 20460 20373 20365 20428 20398 20471 20502 20521 20474 20520 20547 20592 20487 20440 20498 20457 20390 20364 20356 20248 20013 19830 19680 19423 19346 19317 19343 19338 19317 19292 19274 19355 19458 19489 19618 19807 19854 19904 19820 19860 19774 19592 19619 19557 19422 19367 19373 19393 19291 19255 19270 19227 19138 19178 19222 19204 19057 18997 19063 19015 19323 19589 19958 19980 19980 19980 19980 20045 20673 20789 20866 20874 20919 20895 20833 20763 20859 20906 20915 20899 20962 20985 20897 20935 20956 20977 20978 21062 21137 21127 21052 21026
8479 8461 8317 8223 8271 8238 8321 8251 8064 8233 8344 8503 8567 8540 8576 8574 8618 8572 8585 8716 8764 8830 8860 8986 9128 9087 9007 9188 9247 9333 9441 9541 9745 9751 9828 9955 10041 10021 9946 9990 9939 9941 9974 9948 10018 10124 10222 10312 10243 10417 10640 10664 10819 10880 11049 10960 11041 11130 11291 11453 11556 11655 11673 11742 11790 11793 11818 11969 12165 12157 12213 12207 12279 12389 12380 12909 12883 12883 12883 12883 12864 13142 13243 13353 13604 13699 13771 13961 14097 14080 14198 14082 14017 14161 14267 14360 14352 14458 14551 14667 14808 15019 15176 15354 15486 15786 16006 16308 16524 16851 17094 17315 17540 17807 18007 18198 18392 18441 18580 18760 18932 19081 19252 19558 19809 20007 20169 20421 20630 20560 20413 20527 20466 20601 20645 20638 20620 20811 20893 21066 21178 21153 21314 21349 21408 21380 21362 21253 21180 21128 21077 21065 21147 21005 20948 20813 20664 20564 20537 20403 20260 20393 20433 20423 20439 20348 20332 20336 20316 20310 20367 20407 20408 20330 20380 20390 20456 20425 20364 20316 20264 20223 20125 20054 20056 19855 19666 19484 19293 19252 19137 19204 19202 19239 19212 19231 19286 19416 19486 19534 19749 19750 19753 19745 19752 19634 19438 19488 19431 19294 19228 19286 19293 19259 19195 19241 19181 19093 19096 19168 19200 19136 19121 19198 19115 19397 19942 19956 19956 19956 19956 19958 20547 20623 20741 20765 20874 20925 20937 20972 20940 20959 20976 20974 20861 20965 20912 20798 20817 20904 20942 20943 20909 20934 21007 20950 21001
8417 8426 8344 8308 8294 8340 8355 8307 8250 8260 8318 8535 8658 8565 8586 8675 8720 8623 8653 8760 8953 8944 8903 8889 8981 8946 8966 9161 9271 9417 9500 9580 9758 9848 9878 9977 10114 10125 10027 10003 10077 10100 10066 10108 10068 10128 10313 10345 10314 10347 10503 10646 10799 10947 11077 10994 11031 11109 11261 11455 11650 11669 11816 11796 11805 11740 11786 11895 12069 12025 12029 12173 12247 12376 12411 12899 12871 12871 12871 12871 12861 13056 13209 13302 13515 13593 13688 13773 13943 14030 14075 14092 14073 14128 14275 14359 14346 14506 14615 14725 14785 14957 15240 15324 15471 15699 15994 16248 16453 16715 17033 17194 17448 17634 17902 18040 18186 18372 18476 18684 18966 19142 19317 19664 19945 20078 20225 20402 20616 20559 20520 20563 20611 20680 20634 20596 20684 20837 20954 21139 21211 21192 21239 21277 21326 21322 21292 21144 21019 21103 21123 21105 21023 20910 20911 20797 20588 20567 20510 20337 20122 20234 20385 20448 20422 20344 20237 20292 20255 20328 20309 20294 20231 20303 20364 20244 20238 20234 20222 20242 20198 20084 19935 19916 19819 19642 19441 19312 19289 19170 19067 19021 19039 19092 19150 19172 19204 19318 19385 19478 19612 19582 19647 19552 19565 19478 19351 19315 19293 19182 19180 19186 19244 19248 19158 19209 19138 19095 19127 19177 19303 19372 19360 19266 19279 19412 19950 19949 19949 19949 19949 19949 20454 20552 20739 20795 20781 20778 20866 20985 21125 21133 21126 20979 20875 20981 20961 20807 20692 20734 20898 20846 20872 20892 20872 20908 20958
8442 8380 8341 8297 8174 8248 8367 8359 8372 8305 8363 8560 8598 8574 8642 8717 8793 8723 8833 8872 8957 8935 8898 8979 8961 8936 9005 9128 9206 9373 9563 9613 9719 9828 9898 10037 10070 10130 10089 10071 10156 10127 10101 10050 10089 10161 10288 10402 10379 10471 10605 10763 10916 10921 11064 11059 11124 11284 11391 11588 11707 11790 11898 11922 11837 11834 11805 11855 11945 11957 11930 11997 12067 12256 12283 12477 12861 12861 12861 12861 12861 12995 13059 13312 13408 13573 13668 13762 13946 14023 13991 13966 14006 13994 14049 14250 14264 14503 14607 14731 14800 14971 15217 15298 15495 15717 16036 16245 16459 16752 16981 17232 17434 17655 17811 17931 18043 18283 18393 18600 18875 19153 19306 19650 19992 20147 20276 20428 20686 20770 20707 20798 20785 20743 20732 20718 20638 20770 20889 20998 21133 21244 21229 21227 21263 21168 21143 21106 20978 20999 21015 21040 20963 20865 20869 20763 20722 20566 20465 20229 20046 20139 20256 20358 20339 20283 20117 20126 20136 20199 20165 20164 20179 20259 20207 20163 20149 20076 20083 19982 19927 19954 19918 19869 19650 19555 19334 19250 19085 19058 18886 18989 18947 19031 19033 19124 19270 19298 19407 19341 19410 19447 19417 19361 19338 19252 19139 19173 19064 19119 19098 19113 19083 19098 19131 19240 19205 19135 19221 19231 19367 19375 19449 19476 19456 19487 19963 19951 19951 19951 19951 19936 20478 20539 20795 20862 20834 20965 21051 21117 21263 21159 21168 21068 20885 20863 20871 20744 20580 20626 20705 20750 20751 20824 20762 20859 20889
8382 8330 8256 8248 8178 8279 8384 8348 8427 8381 8460 8554 8663 8687 8692 8726 8854 8869 8916 8905 9015 8951 8959 9063 9063 9055 9054 9055 9169 9421 9560 9646 9775 9790 9894 10011 10088 10059 10081 10097 10164 10186 10090 10093 10135 10225 10295 10430 10475 10612 10709 10847 10939 10932 11045 11166 11196 11333 11454 11583 11719 11771 11920 11961 11900 11930 11917 11934 11892 11896 11837 11940 12005 12167 12232 12449 12858 12858 12858 12858 12858 12810 12985 13228 13409 13500 13696 13838 13915 13950 13955 13909 13888 13889 13941 14103 14155 14391 14645 14766 14892 15081 15155 15375 15541 15734 16034 16267 16422 16702 16979 17166 17432 17580 17799 17969 18025 18162 18398 18668 18887 19110 19337 19683 20001 20156 20286 20498 20822 20906 20945 20912 20886 20874 20824 20761 20642 20827 20920 21042 21138 21234 21268 21206 21234 21037 20951 20943 20873 20852 20787 20904 20917 20858 20777 20700 20741 20554 20357 20225 20073 20072 20157 20140 20245 20184 20115 20134 20039 20062 20076 20156 20112 20114 20163 20158 20097 20016 19898 19800 19744 19802 19791 19756 19609 19433 19184 19094 19009 18972 18823 18871 18828 18852 18945 19138 19221 19214 19317 19301 19293 19166 19090 19141 19122 18983 18935 18928 18945 18945 18975 19017 18934 19052 19121 19185 19233 19274 19366 19362 19368 19383 19498 19481 19520 19632 19969 19958 19958 19958 19958 19930 20428 20556 20759 20824 20877 21018 21124 21195 21337 21303 21216 21074 20994 20943 20849 20747 20563 20531 20598 20608 20653 20725 20690 20819 20892
8300 8348 8258 8299 8194 8199 8362 8381 8405 8403 8537 8519 8632 8658 8677 8758 8811 8757 8780 8876 8994 8973 9022 8998 9065 9083 9157 9252 9334 9496 9707 9725 9821 9810 9934 10031 10273 10200 10210 10190 10311 10229 10176 10241 10242 10341 10320 10485 10587 10615 10677 10831 10941 11087 11153 11157 11235 11405 11583 11659 11757 11771 11898 11860 11867 11913 11885 11845 11812 11862 11853 11971 12033 12228 12284 12480 12857 12857 12857 12857 12857 12933 13111 13256 13382 13511 13597 13723 13783 13751 13763 13817 13869 13865 13888 14013 14185 14335 14527 14719 14757 14951 15175 15434 15745 15916 16062 16223 16402 16800 17060 17170 17431 17621 17866 18113 18224 18315 18456 18717 18933 19252 19432 19710 20101 20240 20372 20602 20772 20823 20858 20864 20854 20713 20727 20639 20482 20642 20732 20976 21052 21120 21130 21167 21168 20964 20837 20769 20674 20659 20697 20734 20672 20674 20641 20619 20582 20461 20257 20190 20082 20084 20023 20005 20062 20128 20048 19957 19906 19946 19935 19922 19855 19910 20070 20010 19885 19804 19731 19646 19618 19635 19539 19521 19370 19212 19149 19081 18937 18918 18702 18645 18627 18774 18774 18898 18985 18957 19070 19034 19065 18960 18928 18921 18982 18923 19001 18912 18872 19018 19104 19032 19047 19110 19103 19147 19310 19381 19407 19456 19401 19506 19517 19577 19578 20009 19980 19980 19980 19980 19976 20325 20522 20736 20869 20877 20920 20981 21047 21120 21307 21218 21246 21070 21077 20917 20916 20701 20570 20546 20533 20629 20687 20671 20775 20784 20883
8305 8297 8316 8291 8203 8199 8320 8307 8392 8390 8502 8490 8599 8701 8695 8749 8681 8712 8767 8875 8873 8967 9027 8995 8972 9082 9201 9388 9496 9587 9749 9777 9833 9867 10003 10108 10341 10309 10352 10330 10374 10350 10264 10306 10423 10418 10356 10449 10635 10704 10765 10847 10956 11077 11150 11254 11328 11531 11682 11701 11803 11741 11798 11810 11771 11783 11922 11843 11848 11874 11930 11965 12038 12233 12368 12434 12856 12857 12857 12857 12857 12861 13120 13180 13255 13396 13514 13582 13566 13585 13667 13727 13776 13880 13918 13988 14096 14268 14502 14644 14728 15009 15316 15547 15898 16078 16151 16292 16452 16787 17115 17248 17464 17794 18019 18233 18361 18453 18622 18867 19011 19287 19584 19793 20126 20312 20508 20685 20759 20782 20887 20836 20727 20640 20659 20486 20357 20567 20665 20835 21006 21114 21105 21097 21067 20958 20813 20711 20580 20594 20569 20463 20403 20438 20559 20515 20458 20266 20153 20067 20076 19948 19887 19930 19978 19997 19910 19844 19703 19757 19754 19742 19721 19835 19855 19804 19727 19532 19446 19464 19498 19347 19290 19307 19203 19086 19084 18949 18887 18812 18648 18532 18524 18625 18648 18656 18759 18719 18767 18838 18805 18865 18848 18873 18954 18951 18956 18863 18882 18961 19126 19096 19144 19108 19088 19183 19276 19404 19415 19457 19452 19500 19532 19641 19690 20010 19990 19990 19990 19990 19982 20487 20655 20784 20960 21044 21091 21030 21060 21121 21203 21153 21167 21103 21049 20932 20908 20737 20681 20625 20549 20600 20638 20748 20790 20904 20897
8257 8312 8362 8335 8208 8209 8286 8303 8458 8460 8498 8529 8524 8648 8710 8688 8679 8654 8721 8732 8815 8948 8965 8915 8987 9116 9286 9493 9597 9739 9815 9801 9927 10048 10123 10296 10486 10481 10522 10433 10439 10473 10359 10379 10460 10434 10507 10591 10636 10701 10824 10812 10934 11094 11205 11298 11384 11559 11746 11744 11872 11808 11854 11830 11699 11768 11867 11798 11810 11945 11930 12063 12068 12255 12487 12612 12856 12860 12860 12860 12860 12865 13093 13193 13165 13216 13300 13348 13410 13482 13679 13738 13740 13888 13975 13899 14026 14174 14369 14594 14771 15056 15368 15652 15945 16105 16146 16371 16503 16805 17234 17332 17530 17881 18195 18385 18555 18678 18802 19034 19159 19365 19699 19900 20158 20291 20460 20643 20820 20791 20810 20761 20730 20568 20555 20374 20248 20378 20514 20771 20901 20920 20973 20960 20986 20840 20700 20547 20414 20465 20398 20337 20268 20270 20367 20399 20480 20343 20142 20124 20105 19926 19821 19849 19764 19731 19707 19621 19566 19526 19540 19571 19420 19536 19670 19589 19529 19434 19308 19348 19291 19163 19073 19044 18943 18990 18948 18864 18698 18649 18561 18462 18360 18396 18467 18443 18516 18555 18640 18617 18693 18728 18791 18772 18843 18889 18834 18819 18952 19010 19086 19120 19192 19155 19171 19199 19215 19361 19393 19375 19437 19436 19488 19721 19807 20015 20002 20002 20002 20002 19989 20509 20684 20756 20887 20962 21079 21025 21062 21120 21175 21214 21130 21077 20979 20909 20782 20751 20673 20583 20637 20637 20653 20715 20734 20835 20969
8196 8230 8313 8240 8269 8250 8303 8370 8554 8498 8481 8405 8430 8506 8656 8658 8765 8687 8732 8763 8722 8808 8828 8937 9081 9144 9295 9507 9754 9833 9834 9886 9962 10140 10304 10424 10512 10592 10603 10527 10549 10571 10529 10469 10470 10540 10551 10536 10636 10775 10803 10895 10886 11009 11258 11403 11558 11693 11828 11853 11849 11855 11800 11764 11700 11703 11732 11820 11888 11987 11977 12039 12090 12301 12502 12611 12856 12863 12866 12866 12866 12872 12886 13143 13099 13099 13202 13329 13342 13421 13575 13669 13741 13845 13929 13863 13870 14114 14333 14549 14697 15030 15382 15745 16061 16123 16244 16490 16639 16913 17282 17446 17710 18001 18292 18532 18659 18760 18907 19167 19378 19540 19812 20005 20184 20311 20491 20732 20847 20810 20861 20800 20694 20598 20544 20303 20153 20346 20450 20586 20780 20825 20881 20866 20813 20634 20561 20424 20282 20208 20117 20162 20120 20186 20174 20300 20383 20279 20120 20011 20010 19841 19721 19673 19617 19545 19390 19414 19400 19398 19405 19345 19228 19254 19397 19356 19318 19197 19168 19144 19051 18986 18970 18912 18784 18789 18805 18686 18602 18551 18543 18408 18268 18344 18326 18368 18320 18311 18428 18403 18494 18573 18685 18666 18720 18677 18741 18850 18997 18993 19052 19147 19251 19151 19134 19197 19274 19212 19261 19328 19488 19504 19536 19710 19806 20019 20014 20014 20014 20014 20002 20425 20633 20792 20914 21020 21075 21098 21018 21045 21191 21215 21206 21084 20984 20912 20719 20646 20569 20582 20606 20670 20732 20797 20771 20955 21034
8057 8104 8139 8146 8185 8258 8295 8309 8460 8511 8450 8447 8487 8502 8679 8735 8679 8701 8642 8666 8798 8839 8895 8986 9167 9260 9368 9602 9822 9915 10081 10116 10144 10222 10341 10392 10483 10541 10660 10664 10706 10702 10685 10706 10682 10779 10734 10796 10773 10943 10994 10927 11002 11159 11379 11473 11628 11693 11818 11807 11856 11883 11953 11860 11658 11790 11891 11998 12037 12097 12071 12156 12129 12261 12430 12573 12857 12865 12871 12871 12871 12875 12889 13080 13132 13171 13142 13232 13243 13396 13531 13518 13621 13667 13758 13807 13796 14137 14353 14461 14639 15024 15479 15819 16148 16186 16382 16548 16762 17032 17376 17577 17833 17997 18232 18439 18623 18769 18980 19086 19329 19559 19681 19997 20117 20312 20444 20705 20784 20757 20793 20741 20648 20604 20466 20241 20123 20248 20428 20578 20703 20665 20695 20725 20709 20544 20509 20354 20311 20184 20071 20038 20064 20093 20108 20157 20347 20182 20158 20026 20034 19895 19700 19667 19736 19575 19395 19305 19319 19346 19294 19228 19076 19134 19159 19150 19076 18931 18923 18924 18820 18800 18753 18629 18481 18421 18492 18445 18362 18256 18220 18245 18142 18221 18153 18221 18247 18197 18314 18295 18387 18456 18449 18537 18530 18605 18658 18767 19022 19052 19077 19132 19242 19217 19214 19172 19221 19188 19244 19318 19519 19589 19596 19730 19806 20033 20030 20030 20030 20030 20008 20393 20614 20783 20989 21005 21074 21037 20988 21022 21152 21132 21081 21072 20971 20955 20777 20700 20660 20651 20691 20861 20951 20996 20929 21007 21102
7930 7880 7931 7983 8131 8261 8297 8369 8481 8417 8479 8459 8539 8513 8602 8673 8692 8661 8667 8691 8771 8877 9061 9157 9357 9376 9510 9679 9882 10012 10210 10313 10372 10417 10374 10461 10522 10646 10773 10812 10949 10983 10960 10908 10894 10968 10949 10997 11015 11027 11066 11068 11057 11266 11375 11519 11776 11802 11909 11947 11987 11981 11993 11892 11726 11848 11963 12005 12064 12113 12188 12195 12269 12339 12435 12604 12850 12868 12878 12881 12881 12881 12893 12899 13061 13080 13069 13072 13185 13277 13413 13444 13393 13487 13591 13675 13792 14060 14358 14502 14704 15146 15545 15875 16186 16340 16505 16645 16914 17125 17364 17719 17949 18064 18269 18465 18591 18790 19014 19100 19258 19452 19664 19939 20129 20285 20379 20610 20813 20681 20668 20568 20545 20491 20426 20219 20065 20244 20305 20473 20691 20619 20610 20596 20486 20512 20472 20412 20299 20117 20033 19951 19916 19977 19981 20090 20215 20196 20116 20006 20006 19858 19783 19727 19751 19519 19311 19226 19264 19244 19158 19080 18916 18904 18848 18839 18917 18754 18714 18622 18508 18520 18432 18336 18176 18169 18144 18138 18058 18003 18011 18077 18066 18073 18108 18070 18089 18105 18166 18123 18201 18295 18274 18353 18375 18580 18703 18785 18928 18992 19050 19122 19295 19257 19168 19180 19070 19138 19284 19426 19448 19581 19665 19704 19811 20048 20048 20048 20048 20048 20240 20333 20487 20780 20954 20973 21121 21090 20935 20958 21064 21119 21060 20995 20996 20958 20930 20878 20793 20875 20837 20889 21055 21144 21135 21143 21238
7927 7853 7854 7840 7940 8054 8159 8288 8414 8399 8421 8505 8499 8495 8580 8700 8669 8746 8794 8871 8931 9036 9093 9321 9500 9632 9764 9865 10112 10263 10371 10425 10476 10495 10518 10563 10609 10798 10890 11055 11165 11190 11320 11213 11252 11179 11179 11126 11163 11211 11280 11277 11235 11354 11596 11706 11817 11911 11933 11980 12012 12034 12008 11876 11797 11937 12066 12157 12203 12249 12351 12394 12370 12425 12444 12628 12848 12871 12881 12885 12885 12885 12893 12897 13033 12957 12986 13095 13145 13176 13223 13312 13329 13392 13557 13624 13653 14069 14298 14559 14868 15222 15597 15956 16245 16503 16714 16847 17128 17349 17494 17787 17999 18130 18241 18403 18611 18806 18977 19139 19308 19501 19639 19890 20014 20128 20300 20508 20766 20676 20630 20481 20362 20312 20289 20106 20051 20136 20189 20414 20585 20541 20411 20372 20402 20454 20357 20234 20194 20056 20010 19870 19795 19813 19806 19963 20090 20077 20062 20044 20018 19999 19856 19845 19725 19559 19328 19147 19024 19033 18905 18817 18763 18715 18750 18682 18793 18662 18507 18400 18229 18207 18214 18046 17942 17946 17912 17788 17808 17746 17767 17805 17913 17948 17998 18039 17988 17956 18045 18037 18111 18144 18191 18302 18249 18474 18619 18774 18827 19007 19126 19076 19176 19211 19224 19125 19079 19260 19356 19433 19452 19559 19707 19758 19826 20081 20081 20081 20081 20081 20291 20385 20562 20766 20984 21044 21054 21034 20936 21003 21145 21117 21077 21001 20991 20995 20885 20852 20905 20908 20992 21034 21148 21259 21264 21312 21348
7808 7807 7705 7823 7832 7972 8091 8185 8284 8335 8420 8486 8521 8511 8620 8658 8611 8742 8912 8936 9004 9053 9176 9315 9543 9750 9966 10122 10219 10355 10504 10540 10613 10657 10620 10736 10773 10996 11101 11305 11440 11464 11568 11528 11572 11422 11340 11350 11287 11338 11458 11424 11388 11531 11704 11831 11965 11876 11834 11876 11947 11969 11998 12010 11901 11998 12131 12276 12369 12428 12537 12467 12466 12443 12481 12589 12724 12878 12888 12889 12889 12889 12891 12891 12884 12887 12908 13026 13118 13064 13064 13188 13256 13380 13463 13529 13580 14014 14334 14638 14922 15239 15661 15940 16248 16544 16839 17054 17266 17431 17555 17822 18047 18224 18300 18435 18635 18729 18938 19100 19380 19505 19624 19740 19980 20128 20227 20431 20654 20613 20586 20427 20286 20138 20103 20121 20132 20139 20154 20288 20389 20310 20254 20310 20324 20342 20313 20214 20126 20064 20010 19927 19733 19751 19735 19787 19940 20028 20093 20146 20128 20048 19851 19820 19688 19521 19276 19074 18891 18823 18714 18669 18731 18699 18621 18550 18551 18356 18201 18078 18069 17910 17871 17742 17725 17735 17640 17547 17562 17539 17620 17599 17692 17680 17790 17857 17924 17927 17985 18041 17997 18035 18094 18186 18205 18375 18618 18783 18853 18934 19090 19063 19141 19225 19185 19114 19045 19247 19388 19406 19483 19622 19829 19833 20211 20118 20118 20118 20118 20102 20409 20457 20562 20675 20902 20918 21015 20974 20976 21124 21158 21111 21114 21043 20957 20973 20942 20925 21001 21040 21148 21292 21318 21424 21455 21502 21444
7971 8004 7940 8003 7937 8091 8196 8253 8333 8356 8467 8578 8701 8640 8654 8714 8793 8862 9025 9163 9184 9252 9378 9431 9529 9704 9972 10037 10129 10293 10565 10637 10674 10764 10736 10786 10760 10994 11049 11198 11427 11390 11477 11437 11343 11194 11129 11163 11087 11184 11317 11310 11293 11421 11498 11719 11976 11917 11830 11835 11954 11980 11922 11944 11814 11961 12103 12223 12310 12346 12425 12356 12365 12413 12473 12485 12654 12696 12894 12892 12884 12884 12884 12881 12860 12946 12956 13069 13102 13118 13149 13140 13179 13365 13451 13582 13624 13955 14310 14560 14834 15156 15508 15741 16080 16454 16755 16928 17166 17395 17562 17678 17950 18142 18168 18343 18408 18734 18956 19106 19373 19426 19460 19603 19861 20039 20211 20387 20554 20501 20465 20351 20205 20063 20054 20116 20105 20137 20306 20377 20467 20425 20347 20355 20394 20366 20268 20115 20131 20032 20059 19890 19714 19776 19692 19823 19881 19942 20060 20111 20074 19900 19803 19762 19618 19409 19222 19061 18896 18774 18755 18606 18602 18601 18589 18557 18449 18299 18248 18096 18051 18029 17885 17844 17819 17809 17749 17637 17675 17608 17601 17610 17689 17656 17706 17847 17960 17946 17952 17971 17962 18042 18196 18194 18332 18452 18603 18738 18904 19039 19043 19013 19062 19177 19254 19172 19063 19220 19414 19414 19448 19623 19764 19803 20228 20148 20148 20148 20148 20116 20418 20510 20521 20723 20842 20868 20851 20938 20910 21032 21164 21051 21058 20989 20926 21001 21036 20999 21008 21132 21117 21148 21231 21356 21383 21321 21337
8099 8146 8177 8224 8171 8173 8180 8340 8474 8548 8592 8734 8803 8762 8783 8857 8955 9046 9189 9318 9364 9465 9559 9516 9574 9721 9915 9998 10167 10371 10517 10620 10767 10756 10856 10844 10834 10988 11101 11156 11320 11296 11276 11243 11190 11135 10973 10916 10942 11065 11103 11108 11208 11260 11401 11663 11904 11843 11757 11853 11919 11987 11939 11833 11831 11908 11989 12157 12291 12349 12357 12285 12295 12352 12382 12459 12557 12727 12896 12892 12877 12877 12877 12875 12853 12942 13026 13134 13163 13121 13204 13148 13195 13355 13517 13570 13683 14063 14339 14597 14865 15100 15423 15654 15978 16234 16577 16870 17122 17225 17454 17572 17788 17993 18116 18205 18299 18641 18901 19104 19325 19354 19341 19567 19790 19931 20173 20405 20511 20472 20373 20248 20057 20009 20088 19965 19970 20165 20344 20472 20545 20416 20353 20415 20519 20398 20219 20079 20066 19972 19999 19951 19802 19828 19776 19826 19881 19944 20050 20054 20031 19916 19770 19697 19537 19441 19286 19059 18945 18840 18723 18611 18530 18583 18617 18571 18459 18359 18287 18143 18038 18088 18015 17892 17799 17823 17771 17704 17670 17664 17568 17673 17691 17668 17751 17855 17904 17915 17978 18057 18041 18160 18179 18219 18334 18520 18657 18783 18953 19036 19008 19001 19085 19125 19246 19259 19162 19194 19343 19493 19542 19728 19793 19894 20257 20209 20209 20209 20209 20146 20317 20448 20566 20681 20814 20800 20801 20895 20924 21030 21078 21044 21048 20969 20950 20986 21095 21154 21100 21111 21129 21172 21240 21267 21247 21147 21146
8142 8151 8177 8284 8357 8362 8289 8417 8399 8510 8518 8705 8798 8895 8941 9122 9210 9273 9322 9393 9432 9595 9640 9618 9637 9765 9983 10134 10202 10436 10577 10698 10878 10885 10879 10843 10955 10948 11025 11116 11183 11161 11178 11079 11002 10946 10822 10819 10787 10891 10890 10949 10960 11180 11315 11577 11923 11876 11849 11825 11922 11859 11887 11890 11851 11921 11911 12059 12099 12117 12225 12217 12257 12271 12395 12437 12393 12566 12720 12888 12863 12863 12863 12863 12844 12817 12934 13055 13108 13125 13145 13107 13150 13336 13537 13673 13855 14143 14472 14671 14894 15142 15394 15599 15856 16092 16412 16622 16944 17075 17313 17466 17616 17830 18016 18121 18240 18561 18770 19028 19157 19139 19216 19436 19623 19729 20002 20257 20391 20370 20254 20080 19974 19926 19981 19905 19932 20164 20282 20364 20509 20472 20375 20460 20498 20401 20233 20112 20120 20073 20007 20017 19868 19829 19851 19878 19908 19924 20005 19979 20027 19783 19630 19528 19486 19333 19235 19035 18805 18727 18646 18488 18419 18458 18514 18435 18372 18254 18181 18038 18032 17971 17890 17848 17718 17674 17621 17676 17648 17545 17527 17618 17607 17543 17632 17791 17833 17867 17898 17993 18139 18146 18305 18379 18443 18601 18824 19000 19160 19140 19029 19113 19200 19272 19321 19380 19371 19354 19421 19516 19553 19648 19832 19956 20271 20240 20240 20240 20240 20165 20405 20552 20694 20763 20816 20762 20799 20803 20801 20992 21100 21042 21038 20981 20916 21025 21013 21061 21122 21205 21148 21244 21275 21262 21127 21169 21076
8219 8254 8302 8359 8447 8517 8491 8472 8434 8541 8535 8660 8887 8997 9220 9376 9407 9431 9484 9463 9554 9602 9631 9743 9809 9896 10081 10157 10344 10499 10652 10839 10907 10830 10877 10901 10971 11043 11025 11122 11159 11042 11023 10920 10905 10866 10752 10662 10551 10572 10677 10716 10798 11093 11303 11556 11837 11891 11837 11789 11817 11849 11896 11857 11769 11856 11962 12027 12035 12049 12121 12226 12227 12203 12304 12333 12340 12449 12647 12885 12839 12839 12839 12839 12823 12679 12799 12914 13035 13089 13149 13175 13228 13394 13483 13670 13958 14267 14558 14751 14914 15225 15451 15651 15764 15978 16259 16445 16755 17056 17250 17434 17530 17702 17834 18034 18167 18412 18602 18848 19095 19068 19125 19243 19352 19557 19839 20029 20219 20216 20089 19949 19901 19956 19976 19984 20003 20156 20272 20361 20477 20478 20399 20463 20567 20420 20364 20243 20199 20148 20090 20082 20013 19915 19826 19857 19852 19900 19928 19888 19910 19717 19497 19454 19325 19245 19129 18881 18759 18765 18664 18484 18386 18441 18424 18428 18332 18138 18027 17911 17917 17840 17850 17791 17665 17646 17563 17631 17671 17571 17559 17554 17499 17510 17624 17691 17689 17817 17825 18011 18114 18237 18328 18524 18630 18801 19085 19256 19310 19238 19160 19214 19259 19322 19345 19412 19513 19487 19532 19586 19514 19738 19891 19930 20283 20293 20293 20293 20293 20358 20513 20607 20730 20823 20816 20848 20799 20774 20784 20916 21025 21040 21041 20972 20951 21006 21033 21157 21205 21231 21240 21251 21232 21229 21132 21083 21066
8247 8310 8454 8466 8577 8586 8571 8602 8557 8593 8682 8858 9098 9253 9394 9525 9532 9537 9476 9496 9604 9635 9719 9788 9901 9939 10069 10231 10476 10494 10615 10802 10918 10891 10873 10864 10940 11019 10906 10985 11119 10977 10841 10785 10701 10687 10596 10533 10439 10519 10568 10624 10701 10979 11181 11325 11587 11637 11594 11626 11627 11669 11775 11672 11623 11617 11742 11896 11915 11927 11897 11991 12074 12109 12215 12279 12376 12467 12570 12719 12816 12816 12816 12816 12816 12772 12927 13026 13066 13176 13208 13291 13375 13489 13471 13666 13902 14203 14482 14744 14897 15079 15258 15543 15669 15936 16194 16422 16665 16848 17101 17282 17537 17722 17866 18003 18202 18352 18639 18796 18931 18982 18973 19082 19232 19427 19703 19949 20214 20053 19997 19888 19744 19766 19775 19879 19897 20114 20279 20361 20459 20429 20441 20456 20560 20427 20445 20238 20171 20096 20101 20030 19993 19909 19782 19835 19906 19956 19928 20027 20020 19753 19638 19480 19231 19158 19064 18844 18798 18761 18745 18587 18458 18492 18410 18290 18228 18158 18115 18054 17907 17785 17748 17585 17431 17439 17421 17515 17438 17458 17503 17439 17350 17437 17541 17665 17791 17921 17960 18114 18328 18432 18510 18726 18777 19022 19192 19331 19402 19370 19325 19313 19330 19337 19412 19461 19576 19596 19571 19550 19504 19758 19896 19916 20297 20316 20316 20316 20316 20362 20672 20668 20809 20843 20815 20860 20747 20862 20813 20941 21017 20978 20995 20957 20969 21071 21127 21194 21203 21225 21109 21174 21146 21169 21066 20981 21041
8243 8345 8567 8563 8640 8640 8592 8712 8762 8795 8922 9046 9273 9399 9505 9632 9704 9626 9591 9659 9777 9791 9784 9811 9932 10074 10172 10422 10590 10611 10595 10811 10964 11008 10985 10986 10909 10950 10897 10952 11046 10920 10779 10611 10455 10550 10538 10483 10439 10401 10473 10563 10677 10838 11018 11195 11425 11389 11383 11492 11549 11611 11690 11588 11536 11497 11540 11652 11679 11760 11717 11753 11888 12065 12131 12199 12384 12481 12547 12643 12787 12787 12787 12787 12787 12922 13014 13119 13178 13194 13205 13411 13492 13464 13496 13616 13829 14117 14356 14665 14933 15093 15139 15360 15646 15815 16050 16336 16561 16809 17080 17256 17436 17673 17881 18072 18252 18372 18561 18575 18698 18789 18932 19069 19215 19393 19551 19814 20099 19994 19851 19796 19664 19683 19667 19752 19808 19998 20198 20256 20440 20471 20376 20456 20573 20456 20417 20327 20153 20136 20056 19950 19921 19887 19801 19885 19971 20022 20003 20062 20135 19873 19665 19463 19243 19059 18988 18881 18783 18811 18741 18590 18508 18481 18356 18338 18244 18198 18161 18119 17971 17815 17615 17526 17311 17273 17349 17348 17303 17369 17332 17333 17212 17299 17426 17677 17847 18044 18199 18373 18456 18579 18798 18932 18962 19111 19230 19338 19546 19464 19433 19486 19460 19443 19529 19562 19560 19540 19499 19477 19566 19746 19887 19978 20310 20334 20339 20339 20339 20367 20372 20733 20810 20820 20750 20800 20788 20908 20968 20959 21064 21011 21062 20981 20973 21069 21155 21225 21314 21177 21051 21004 21007 21056 21041 20928 20915
8314 8501 8642 8699 8841 8780 8758 8763 8864 8998 9037 9170 9455 9534 9591 9665 9828 9757 9641 9791 9867 9856 9810 9884 9979 10036 10173 10451 10684 10708 10666 10855 10906 10941 10865 10840 10721 10808 10786 10832 10884 10716 10581 10474 10281 10433 10385 10269 10284 10232 10340 10461 10504 10689 10852 11091 11263 11315 11235 11374 11331 11453 11472 11459 11404 11477 11482 11502 11657 11695 11709 11769 11806 11915 12005 12149 12336 12498 12596 12636 12773 12773 12773 12773 12773 12936 13136 13227 13287 13286 13356 13523 13551 13538 13571 13688 13841 14017 14273 14559 14888 15029 15028 15221 15478 15715 16072 16258 16556 16741 17001 17254 17456 17675 17879 17966 18204 18318 18453 18553 18592 18657 18793 18952 19143 19363 19482 19680 19859 19792 19798 19735 19564 19620 19583 19766 19842 19977 20202 20160 20314 20356 20335 20362 20425 20329 20307 20349 20246 20246 20125 20054 19908 19867 19905 19968 20001 20017 20030 20148 20135 19850 19630 19487 19328 19083 18957 18920 18806 18682 18673 18577 18469 18386 18391 18296 18115 18054 18120 17940 17840 17754 17614 17418 17277 17184 17192 17184 17079 17214 17279 17204 17160 17378 17515 17676 17879 18039 18172 18271 18466 18641 18837 18980 19089 19192 19262 19385 19571 19496 19458 19495 19376 19416 19536 19521 19533 19546 19642 19660 19702 19884 19969 20154 20335 20353 20361 20361 20361 20369 20373 20714 20711 20703 20714 20743 20742 20875 20963 20972 21136 21080 21140 21057 21081 21183 21171 21266 21330 21249 21095 21016 20998 20987 20879 20866 20886
8507 8610 8748 8909 9008 9019 8906 8917 9054 9184 9281 9397 9608 9659 9629 9697 9879 9762 9750 9834 9850 9806 9887 9937 9972 10127 10247 10407 10653 10645 10662 10815 10886 10829 10794 10657 10611 10595 10574 10648 10690 10556 10426 10383 10226 10266 10183 10079 10078 10160 10219 10297 10399 10577 10803 10962 11211 11213 11154 11215 11184 11208 11293 11253 11260 11387 11396 11476 11569 11599 11595 11617 11689 11767 11940 12197 12363 12445 12575 12577 12756 12756 12756 12756 12756 13088 13235 13313 13440 13424 13493 13591 13676 13648 13679 13838 13902 14081 14248 14554 14849 14988 15024 15172 15314 15634 15984 16228 16548 16764 16920 17153 17446 17680 17805 17912 18137 18255 18405 18390 18462 18536 18647 18807 19057 19332 19518 19619 19729 19746 19735 19577 19547 19597 19584 19687 19857 20047 20122 20125 20250 20200 20257 20353 20366 20304 20257 20336 20303 20247 20153 20023 19810 19880 19911 19946 20069 20045 20097 20158 20111 19939 19700 19501 19344 19122 18992 18831 18780 18694 18510 18478 18489 18421 18358 18241 18100 17966 17957 17824 17778 17703 17510 17358 17138 17093 17053 17033 16938 17016 17130 17186 17140 17335 17529 17702 17866 18016 18167 18324 18567 18790 18946 19141 19305 19331 19326 19450 19560 19624 19577 19431 19408 19472 19597 19656 19612 19608 19699 19751 19834 19944 20149 20258 20343 20360 20365 20367 20367 20370 20373 20374 20673 20736 20782 20740 20789 20904 20980 21067 21163 21192 21305 21255 21211 21163 21194 21239 21289 21172 21105 21011 20923 20862 20828 20946 20964
8550 8697 8788 8842 8976 8953 8957 9053 9136 9159 9318 9465 9649 9705 9710 9783 10007 9942 9927 9923 10032 9941 10007 9977 10067 10236 10308 10415 10670 10657 10598 10761 10794 10758 10661 10546 10490 10557 10575 10614 10573 10490 10384 10296 10334 10274 10165 10152 10136 10116 10191 10312 10290 10473 10641 10865 11102 11066 11115 11123 11054 11103 11188 11187 11228 11313 11451 11457 11578 11607 11612 11622 11721 11884 11960 12087 12294 12410 12459 12526 12741 12741 12741 12741 12741 12979 13177 13297 13438 13458 13545 13604 13670 13722 13752 13790 13776 13987 14137 14459 14810 14910 15057 15208 15305 15581 15890 16095 16401 16662 16869 17146 17442 17558 17663 17781 17936 18021 18222 18277 18380 18560 18735 18876 18967 19225 19363 19559 19731 19707 19621 19528 19565 19608 19582 19717 19850 20018 20075 20108 20184 20200 20176 20211 20298 20298 20211 20179 20222 20191 20121 19935 19902 19971 19941 19986 19960 19902 19903 19939 19958 19683 19492 19441 19341 19073 18861 18763 18776 18585 18421 18463 18440 18357 18348 18119 17989 17921 17899 17875 17736 17555 17395 17293 17096 17032 17027 17022 16989 17022 17004 17004 17005 17210 17458 17732 17931 18053 18154 18389 18499 18666 18898 19099 19234 19185 19289 19425 19583 19572 19639 19515 19412 19530 19649 19649 19665 19687 19754 19814 19837 19886 20036 20179 20311 20370 20372 20372 20372 20372 20372 20372 20589 20675 20702 20797 20813 20905 21018 21098 21080 21142 21279 21264 21252 21273 21262 21358 21360 21287 21229 21044 21015 20929 20980 21030 21092
8486 8599 8790 8910 8943 8985 8927 9057 9095 9239 9468 9571 9722 9671 9719 9963 10097 10104 10004 10023 10150 10118 10049 10098 10229 10292 10283 10416 10599 10573 10625 10657 10700 10615 10634 10564 10435 10437 10530 10457 10402 10350 10284 10318 10336 10288 10263 10114 10083 10046 10076 10233 10283 10436 10470 10724 10874 10899 11033 10981 11018 11102 11082 11207 11283 11417 11484 11510 11565 11604 11632 11624 11705 11851 12044 12130 12254 12335 12412 12682 12723 12723 12723 12723 12729 12953 13026 13194 13388 13382 13497 13568 13617 13629 13770 13775 13729 13879 14129 14484 14720 14867 15057 15223 15336 15593 15835 16012 16278 16598 16835 17097 17461 17468 17560 17671 17779 17900 18039 18235 18402 18591 18699 18841 18931 19154 19255 19418 19633 19606 19628 19517 19498 19561 19558 19734 19849 19902 20030 20139 20194 20175 20209 20229 20236 20229 20235 20159 20105 20065 20051 19935 19882 19916 19991 19965 19888 19772 19782 19817 19864 19585 19372 19246 19219 19017 18835 18791 18676 18528 18358 18411 18373 18253 18259 18081 17989 17834 17797 17795 17678 17562 17342 17093 16932 16978 16978 17033 17048 17009 16937 16897 16897 17171 17422 17673 17876 17990 18109 18379 18525 18706 18805 18942 19179 19140 19211 19401 19546 19595 19589 19524 19435 19642 19733 19757 19814 19847 19809 19878 19951 19937 20001 20119 20357 20373 20373 20372 20370 20370 20370 20368 20361 20581 20669 20806 20949 20928 21034 21016 21034 21072 21171 21177 21174 21263 21354 21438 21500 21353 21331 21179 21008 21061 21165 21209 21276
8493 8555 8734 8810 8905 8987 8960 9163 9210 9293 9432 9570 9651 9734 9749 10001 10070 10080 10071 10161 10172 10122 10129 10284 10422 10428 10363 10506 10554 10466 10527 10662 10695 10689 10594 10447 10393 10342 10441 10413 10397 10328 10344 10376 10302 10259 10158 10135 10040 10007 10163 10156 10145 10260 10325 10542 10724 10747 10852 10895 10910 11016 11124 11207 11243 11339 11421 11446 11579 11587 11550 11672 11687 11895 12031 12156 12266 12333 12433 12678 12706 12706 12706 12706 12718 12976 13061 13096 13246 13317 13397 13514 13548 13676 13743 13727 13658 13930 14157 14478 14687 14794 15037 15242 15343 15512 15773 15972 16217 16476 16749 17097 17422 17408 17508 17583 17729 17809 18017 18217 18338 18550 18712 18821 18972 19184 19248 19367 19579 19504 19451 19397 19509 19548 19671 19819 19932 19968 20035 20106 20103 20082 20132 20212 20160 20144 20203 20063 20075 19943 19907 19981 19917 19902 19848 19748 19756 19691 19745 19693 19644 19429 19230 19197 19089 18902 18796 18704 18631 18478 18363 18260 18232 18239 18154 18040 17973 17845 17746 17666 17588 17436 17232 17018 16859 16940 16855 17010 16985 17028 16950 16892 16858 17149 17453 17647 17861 18004 18151 18241 18417 18517 18701 18905 19154 19238 19241 19380 19572 19608 19674 19540 19446 19536 19711 19753 19875 19897 19948 19952 19969 19894 19969 20165 20262 20367 20373 20372 20366 20366 20366 20364 20356 20676 20706 20829 20975 20913 21086 21085 21069 21143 21134 21099 21122 21230 21258 21365 21575 21491 21423 21273 21162 21230 21156 21314 21339
8583 8560 8644 8696 8791 8927 9121 9221 9280 9335 9369 9488 9638 9786 9881 9976 10127 10159 10205 10250 10223 10251 10325 10365 10494 10488 10439 10453 10460 10445 10476 10575 10704 10611 10532 10425 10390 10311 10350 10305 10367 10412 10391 10380 10334 10270 10105 10042 10075 10035 10124 10181 10117 10231 10268 10398 10650 10615 10614 10649 10758 10949 11083 11100 11198 11314 11377 11458 11487 11544 11505 11613 11733 11874 11965 12119 12291 12423 12467 12673 12692 12692 12692 12692 12712 12855 12991 13106 13225 13364 13393 13418 13542 13583 13685 13720 13712 13948 14282 14539 14681 14844 15135 15185 15344 15548 15647 15860 16082 16397 16678 17075 17361 17388 17375 17445 17592 17745 17898 18087 18220 18399 18663 18740 18925 19177 19308 19468 19511 19383 19360 19362 19463 19547 19739 19807 19909 19963 20037 19979 19930 19975 20053 20143 20193 20243 20184 20001 19930 19901 19860 19971 19963 19870 19801 19655 19638 19671 19688 19636 19484 19334 19096 19003 18850 18794 18712 18588 18527 18387 18244 18130 18091 18081 18162 18085 18059 17825 17719 17595 17409 17202 17094 16973 16890 16887 16860 16944 16981 16974 16846 16834 16892 17146 17397 17698 17875 17994 18161 18253 18313 18399 18584 18815 19042 19187 19260 19470 19629 19659 19699 19575 19580 19547 19591 19685 19846 19855 19977 19926 19911 19916 20016 20103 20263 20408 20550 20372 20364 20352 20352 20352 20340 20316 20632 20783 20876 20909 21022 21042 21000 21059 20994 21010 21131 21210 21240 21369 21532 21486 21461 21376 21300 21316 21275 21384 21376
8565 8680 8803 8802 8873 9041 9195 9222 9386 9408 9391 9596 9763 9805 9960 10125 10250 10307 10326 10389 10343 10452 10406 10567 10604 10577 10471 10455 10492 10468 10482 10534 10560 10480 10463 10381 10324 10325 10333 10397 10332 10391 10417 10385 10271 10105 10016 9991 10013 10065 10159 10158 10155 10269 10386 10513 10648 10639 10744 10729 10759 10819 10979 11058 11134 11257 11374 11385 11493 11453 11464 11611 11725 11804 11956 12191 12361 12363 12428 12671 12679 12679 12679 12679 12697 12923 13018 13156 13236 13295 13362 13403 13550 13593 13677 13737 13678 13893 14212 14462 14754 14853 15033 15184 15286 15489 15618 15829 16107 16406 16593 16904 17265 17321 17466 17552 17591 17737 17809 17930 18150 18397 18650 18723 18812 19022 19171 19404 19475 19373 19311 19325 19436 19520 19639 19725 19752 19888 19870 19895 19856 19934 20039 20066 20078 20112 20047 19894 19831 19782 19816 19884 19920 19806 19687 19677 19639 19551 19590 19603 19495 19279 19050 18932 18833 18656 18568 18469 18381 18316 18197 18149 18106 18107 18202 18119 17997 17815 17752 17575 17499 17290 17197 17158 16959 16934 16969 16999 17047 16989 16908 16964 16949 17164 17229 17530 17776 17971 18124 18135 18336 18400 18661 18927 19107 19201 19332 19513 19576 19599 19675 19594 19703 19658 19795 19780 19894 19973 20063 20004 20008 19977 20032 20173 20277 20327 20535 20371 20362 20338 20326 20326 20314 20282 20229 20676 20812 20923 20974 21039 21024 20992 21006 21134 21144 21315 21358 21456 21515 21496 21458 21388 21355 21400 21391 21382 21365
8638 8792 8905 8949 9041 9105 9176 9279 9378 9490 9521 9676 9821 9891 10057 10238 10337 10494 10560 10585 10550 10558 10612 10665 10663 10564 10468 10489 10464 10383 10389 10407 10482 10406 10431 10440 10357 10342 10429 10418 10390 10418 10346 10289 10187 10018 9966 9999 9971 10020 10145 10130 10144 10240 10442 10578 10683 10694 10768 10762 10781 10835 10905 11001 11144 11242 11319 11349 11401 11455 11495 11641 11837 11897 11963 12178 12311 12277 12290 12670 12673 12673 12673 12673 12691 12938 13063 13181 13197 13234 13380 13503 13515 13613 13664 13696 13772 13966 14269 14539 14729 14809 14906 15155 15296 15416 15620 15808 16072 16295 16565 16828 17167 17324 17451 17480 17496 17609 17711 17863 18023 18248 18511 18631 18739 18954 19113 19289 19373 19420 19373 19383 19325 19427 19577 19595 19653 19732 19814 19711 19683 19839 20023 20037 20063 19922 19861 19876 19773 19772 19708 19783 19814 19683 19650 19621 19566 19510 19534 19501 19422 19301 19106 18937 18778 18633 18521 18410 18318 18214 18200 18238 18226 18194 18185 18066 18029 17879 17723 17689 17569 17511 17377 17269 17063 17014 16993 16993 16996 16895 16878 16978 17044 17164 17166 17316 17595 17762 17972 18081 18279 18442 18697 18894 19169 19208 19341 19533 19649 19642 19615 19617 19725 19824 19896 19837 19900 20016 20183 20196 20225 20149 20110 20214 20221 20336 20414 20393 20356 20328 20299 20299 20299 20265 20214 20606 20735 20789 20856 20945 20936 21063 21121 21177 21188 21311 21405 21435 21588 21475 21407 21298 21296 21293 21404 21476 21461
8530 8696 8878 9003 9026 9205 9300 9440 9526 9627 9693 9720 9871 9992 10181 10340 10400 10544 10596 10672 10753 10768 10795 10801 10785 10707 10608 10511 10463 10389 10430 10497 10499 10415 10514 10517 10493 10463 10382 10431 10408 10298 10221 10134 10177 9994 9920 9914 9826 9965 10128 10159 10225 10225 10409 10413 10561 10666 10655 10720 10692 10764 10799 10904 11039 11154 11151 11231 11234 11303 11440 11593 11835 11933 11988 12119 12237 12216 12686 12671 12671 12671 12671 12668 12777 12957 13054 13171 13248 13239 13360 13459 13513 13660 13681 13811 13869 14013 14270 14481 14711 14834 14904 15043 15148 15395 15521 15761 16101 16379 16531 16823 17232 17357 17413 17473 17485 17562 17692 17829 17997 18235 18414 18506 18621 18822 18895 19108 19304 19309 19203 19238 19243 19340 19509 19529 19496 19562 19707 19608 19622 19722 19884 19974 20088 19875 19820 19804 19770 19755 19807 19787 19798 19647 19579 19526 19606 19512 19484 19393 19362 19225 19002 18868 18854 18719 18545 18341 18204 18160 18198 18258 18227 18215 18170 18120 17974 17929 17888 17743 17599 17486 17342 17162 17077 17122 17116 17089 17176 17059 16990 16960 16967 17089 17122 17357 17545 17723 17900 18066 18322 18485 18753 18931 19102 19196 19318 19510 19498 19564 19631 19694 19815 19874 19983 20025 20010 20144 20245 20325 20285 20193 20136 20182 20195 20291 20297 20339 20347 20311 20245 20245 20245 20231 20180 20516 20527 20588 20689 20791 20921 20984 21112 21116 21245 21238 21289 21397 21575 21527 21417 21412 21389 21312 21287 21342 21397
8475 8703 8844 8907 9091 9277 9416 9599 9696 9741 9798 9881 9973 10142 10329 10416 10468 10614 10719 10795 10893 10905 10980 10879 10817 10794 10724 10597 10489 10462 10498 10449 10438 10463 10549 10566 10526 10468 10399 10425 10334 10246 10105 10074 10077 10010 9818 9720 9735 9906 9995 10138 10197 10185 10263 10346 10492 10536 10605 10602 10670 10688 10813 10868 10913 10957 10972 10977 11103 11327 11465 11639 11710 11786 11990 12094 12141 12251 12695 12675 12675 12675 12675 12667 12773 12839 13017 13146 13357 13339 13391 13447 13580 13677 13826 13880 13962 14122 14379 14537 14616 14743 14922 14978 15128 15313 15489 15767 16072 16371 16585 16960 17230 17298 17451 17499 17506 17636 17674 17767 17957 18103 18352 18369 18512 18638 18758 18989 19140 19197 19129 19170 19277 19368 19397 19462 19465 19540 19584 19610 19530 19733 19831 19946 20085 19915 19764 19772 19678 19747 19786 19752 19662 19548 19547 19521 19583 19552 19480 19415 19265 19176 18970 18936 18932 18693 18454 18326 18160 18132 18176 18202 18194 18199 18235 18154 18022 18018 17927 17776 17642 17588 17420 17219 17103 17196 17286 17259 17261 17217 17048 16988 17014 17092 17106 17317 17414 17588 17856 18010 18290 18517 18779 18969 19120 19200 19405 19457 19473 19628 19689 19749 19894 19993 20105 20066 20128 20262 20353 20371 20400 20327 20286 20199 20171 20201 20182 20229 20227 20299 20213 20213 20213 20213 20162 20398 20410 20461 20597 20832 20982 20982 21001 21064 21237 21212 21260 21443 21537 21544 21493 21444 21356 21315 21221 21238 21328
8601 8804 9005 9100 9210 9355 9600 9813 9954 9979 9972 10095 10275 10417 10494 10659 10661 10767 10871 11024 11121 11126 11139 11078 10990 10890 10823 10852 10804 10761 10660 10672 10595 10660 10811 10848 10760 10676 10664 10636 10538 10426 10336 10236 10269 10096 9975 9914 9997 10142 10195 10199 10316 10389 10546 10654 10738 10812 10773 10790 10860 10889 11072 11102 11077 11154 11184 11239 11266 11561 11732 11871 11921 12003 12122 12159 12317 12316 12714 12693 12693 12693 12693 12666 12782 12868 13081 13168 13436 13404 13441 13439 13573 13554 13700 13763 13955 14153 14451 14617 14673 14843 14919 15059 15224 15488 15666 15943 16083 16387 16587 16915 17104 17285 17400 17509 17536 17588 17662 17791 18029 18186 18457 18406 18477 18672 18729 18912 19042 19021 19005 19069 19178 19265 19280 19295 19374 19430 19528 19478 19514 19716 19793 19934 19959 19837 19803 19765 19678 19768 19686 19707 19645 19600 19498 19428 19470 19556 19567 19547 19367 19224 19106 18950 18969 18727 18603 18504 18327 18180 18151 18112 18149 18191 18218 18031 17947 17860 17716 17682 17489 17420 17400 17227 17099 17181 17280 17350 17349 17338 17189 17179 17103 17138 17306 17398 17479 17724 17893 18082 18245 18521 18827 18895 19033 19115 19323 19448 19499 19567 19580 19728 19799 19953 20040 20041 20170 20246 20212 20191 20304 20246 20193 20065 20039 20063 20032 20061 20086 20265 20160 20160 20160 20160 20143 20369 20436 20464 20629 20761 20936 20902 20995 21086 21183 21172 21201 21380 21462 21388 21324 21212 21221 21153 21147 21191 21323
8678 8902 9054 9127 9315 9470 9716 9904 10101 10151 10274 10391 10477 10516 10664 10819 10972 11069 11082 11241 11290 11279 11173 11149 11103 11069 11042 11008 11032 11029 10908 10812 10825 10878 11000 11037 10964 10889 10852 10860 10838 10724 10649 10481 10421 10324 10179 10205 10163 10301 10433 10395 10442 10561 10780 10869 10967 11052 11037 11132 11114 11148 11288 11217 11206 11202 11288 11323 11414 11687 11887 11961 12042 12111 12139 12214 12371 12387 12724 12708 12708 12708 12708 12668 12863 13005 13064 13244 13409 13479 13491 13504 13494 13522 13616 13773 13882 14182 14462 14694 14803 14905 14991 15163 15415 15697 15950 16088 16204 16415 16655 16914 17078 17196 17324 17499 17594 17611 17690 17824 18063 18244 18443 18420 18480 18614 18826 18915 19048 18948 18956 18995 19066 19073 19172 19317 19381 19496 19495 19514 19559 19628 19723 19848 19925 19865 19771 19811 19791 19760 19634 19576 19555 19482 19488 19353 19338 19403 19549 19598 19544 19343 19125 18984 18908 18881 18745 18644 18445 18363 18188 18150 18072 18030 18094 17905 17830 17677 17615 17535 17361 17343 17405 17305 17174 17216 17327 17299 17326 17354 17285 17276 17274 17304 17417 17563 17663 17819 17930 18041 18280 18547 18782 18921 19055 19081 19183 19283 19441 19451 19452 19605 19728 19905 20057 20109 20176 20106 20112 20124 20152 20060 20074 19881 19796 19834 19888 19983 20028 19982 20083 20083 20083 20083 20083 20415 20387 20441 20590 20697 20770 20823 20997 21047 21071 21130 21223 21285 21293 21212 21136 21111 21088 21127 21135 21208 21239
8862 9065 9210 9303 9553 9681 9919 10103 10212 10237 10395 10462 10599 10760 10890 11018 11219 11341 11391 11423 11463 11479 11375 11272 11216 11324 11301 11236 11320 11268 11275 11163 11104 11164 11201 11160 11160 11088 11067 11166 11069 10988 10943 10778 10702 10533 10433 10448 10450 10540 10634 10599 10500 10703 10875 11010 11050 11159 11121 11135 11193 11328 11413 11449 11401 11459 11462 11579 11618 11794 12059 12098 12160 12177 12216 12223 12356 12307 12741 12732 12732 12732 12732 12671 12906 12977 13045 13158 13398 13493 13466 13429 13449 13544 13704 13718 13856 14163 14354 14587 14843 14963 15055 15394 15658 15890 16087 16189 16276 16576 16800 16960 17060 17196 17270 17364 17598 17649 17717 17810 17965 18149 18436 18479 18515 18668 18875 18910 18997 19040 19042 18966 19008 19083 19121 19278 19391 19465 19536 19564 19555 19673 19784 19893 19995 19943 19862 19796 19806 19708 19593 19668 19630 19597 19492 19440 19341 19369 19414 19534 19592 19436 19186 19012 18862 18855 18794 18759 18600 18372 18260 18182 18036 17999 18020 17986 17876 17664 17535 17482 17328 17370 17389 17315 17220 17175 17282 17316 17310 17270 17262 17270 17391 17441 17579 17619 17731 17860 18057 18184 18243 18530 18796 18957 19063 19098 19274 19373 19416 19512 19471 19590 19713 19833 19951 20032 20069 20082 20009 19920 19876 19857 19794 19710 19669 19713 19842 19986 20003 19911 20040 20040 20040 20040 20040 20364 20428 20517 20648 20685 20786 20855 20869 20974 21083 21068 21122 21153 21282 21266 21179 21161 21079 21101 21141 21175 21237
9059 9322 9479 9552 9739 9888 10114 10202 10303 10360 10447 10591 10791 10971 11071 11200 11441 11576 11615 11645 11711 11648 11657 11512 11441 11484 11499 11483 11516 11584 11528 11514 11442 11405 11471 11351 11318 11369 11322 11417 11407 11288 11237 11090 10926 10884 10740 10703 10690 10683 10721 10665 10678 10828 11056 11174 11248 11256 11258 11310 11331 11414 11588 11604 11603 11671 11696 11689 11773 11941 12120 12213 12398 12427 12363 12342 12363 12802 12758 12758 12758 12758 12750 12807 12947 13052 13044 13169 13320 13378 13477 13402 13381 13510 13718 13750 13907 14164 14320 14540 14757 14989 15166 15455 15780 15967 16184 16247 16377 16593 16832 16904 17081 17162 17224 17342 17588 17678 17705 17859 17996 18151 18377 18482 18618 18778 18840 18856 18964 19046 19020 18992 19044 19108 19168 19336 19525 19490 19518 19500 19535 19668 19850 19886 20020 20052 19972 19829 19723 19685 19646 19680 19612 19571 19507 19367 19327 19410 19378 19447 19585 19447 19259 19053 18891 18821 18780 18781 18665 18456 18258 18157 17994 17905 17933 17907 17868 17712 17559 17385 17235 17287 17279 17228 17153 17192 17351 17312 17327 17261 17295 17398 17501 17647 17736 17747 17783 17987 18153 18250 18314 18519 18715 18866 19033 19177 19290 19292 19420 19466 19465 19527 19684 19780 19828 19846 19984 19905 19875 19809 19729 19728 19631 19651 19573 19705 19805 19916 19976 19926 19946 19946 19946 19946 19946 20377 20519 20648 20679 20647 20728 20732 20816 20957 21126 21088 21075 21058 21159 21189 21122 21062 20960 21036 21178 21137 21152
9376 9577 9638 9759 9981 10172 10275 10455 10588 10669 10704 10870 11114 11282 11406 11488 11685 11775 11777 11787 11772 11732 11682 11658 11525 11593 11640 11632 11622 11668 11639 11662 11612 11706 11746 11603 11614 11555 11512 11574 11528 11440 11382 11254 11244 11160 11119 11027 10962 10925 10908 10957 10948 11037 11088 11175 11305 11386 11420 11380 11327 11452 11637 11671 11769 11748 11872 11940 11918 12129 12290 12423 12493 12492 12486 12531 12480 12812 12779 12779 12779 12779 12760 12997 13019 13013 13065 13158 13249 13354 13516 13516 13486 13606 13762 13865 14010 14244 14411 14519 14778 14985 15185 15459 15877 16045 16162 16255 16423 16604 16880 16918 17107 17252 17302 17505 17572 17652 17640 17831 18016 18130 18338 18495 18661 18728 18845 18946 19012 19076 19059 19102 19154 19164 19259 19281 19345 19390 19448 19376 19464 19586 19682 19794 19865 19833 19782 19729 19715 19718 19705 19636 19500 19497 19570 19430 19251 19365 19385 19473 19501 19418 19361 19118 18920 18824 18757 18831 18754 18588 18357 18219 18085 17986 17999 17882 17798 17614 17462 17409 17287 17249 17246 17165 17147 17246 17413 17432 17412 17337 17427 17437 17509 17626 17751 17848 17857 18037 18214 18296 18468 18609 18759 18924 19104 19162 19212 19224 19324 19312 19393 19441 19602 19616 19679 19750 19798 19719 19715 19719 19583 19599 19559 19507 19440 19626 19707 19855 19864 19875 19921 19893 19893 19893 19893 19720 20304 20495 20508 20485 20534 20637 20655 20823 20940 20930 20991 21056 21163 21088 21142 21009 20948 21019 21054 21079 21027
9584 9799 9906 10109 10188 10370 10524 10698 10955 11024 11062 11234 11450 11569 11711 11855 11966 11907 11931 11857 11797 11746 11761 11692 11672 11699 11716 11825 11814 11871 11820 11878 11882 11830 11900 11803 11817 11760 11763 11792 11710 11628 11535 11542 11547 11423 11405 11269 11203 11096 11085 11079 11137 11156 11216 11389 11439 11429 11501 11389 11405 11517 11706 11752 11871 11908 12065 12091 12173 12235 12346 12475 12622 12659 12629 12633 12547 12818 12801 12801 12801 12801 12778 13088 13163 13165 13054 13147 13263 13411 13493 13597 13681 13727 13882 13881 13987 14212 14441 14578 14824 14986 15266 15543 15886 16033 16224 16430 16543 16691 16906 17035 17167 17334 17444 17565 17628 17666 17644 17770 18019 18166 18343 18526 18661 18825 18956 18967 19071 19052 19144 19141 19218 19324 19310 19268 19288 19307 19311 19299 19327 19404 19525 19601 19683 19755 19712 19747 19729 19711 19661 19543 19483 19464 19528 19356 19248 19330 19507 19484 19544 19498 19398 19181 19058 18989 18799 18825 18822 18587 18387 18268 18052 18081 18006 17863 17791 17607 17369 17252 17218 17149 17174 17150 17205 17320 17424 17350 17372 17376 17496 17526 17444 17675 17816 17864 18038 18104 18218 18378 18524 18685 18766 18975 19138 19185 19246 19282 19220 19303 19282 19318 19464 19500 19616 19697 19674 19567 19520 19525 19534 19430 19407 19364 19402 19486 19609 19709 19802 19824 19896 19807 19807 19807 19807 19658 20203 20281 20284 20252 20309 20417 20524 20602 20763 20867 21032 21057 21080 21062 21105 20975 20847 20987 21029 21006 20897
9882 10052 10225 10336 10557 10713 10761 11012 11156 11230 11406 11564 11675 11821 11912 12053 12115 12068 12072 12031 11977 11965 11961 11836 11784 11831 11955 12009 12067 12087 12127 12101 12070 12059 12048 11938 11906 11880 11943 11912 11978 11880 11770 11735 11799 11647 11567 11523 11404 11281 11233 11230 11276 11262 11396 11404 11483 11492 11600 11606 11591 11705 11827 11952 11974 12114 12220 12270 12236 12314 12416 12469 12614 12667 12708 12697 12593 12832 12820 12820 12820 12820 12784 13084 13175 13174 13085 13254 13354 13339 13496 13561 13672 13807 13872 13878 13935 14203 14559 14778 14979 15167 15420 15665 15940 16003 16191 16354 16564 16692 16870 16992 17237 17273 17395 17527 17683 17702 17636 17731 17862 18041 18134 18371 18552 18668 18887 18995 19032 19137 19152 19222 19214 19220 19288 19329 19300 19265 19338 19340 19314 19393 19546 19600 19586 19645 19636 19697 19620 19609 19630 19603 19476 19437 19497 19406 19344 19407 19377 19411 19452 19431 19334 19231 19087 18963 18790 18758 18716 18562 18389 18333 18209 18115 17858 17732 17624 17511 17305 17323 17251 17242 17248 17194 17282 17338 17359 17344 17248 17377 17415 17406 17504 17661 17896 17895 18016 18183 18260 18475 18558 18707 18821 19024 19093 19135 19254 19275 19250 19203 19221 19231 19313 19377 19486 19530 19561 19533 19463 19459 19417 19386 19268 19357 19332 19448 19582 19734 19785 19768 19842 19719 19719 19719 19719 19627 20126 20123 20078 20163 20150 20344 20418 20539 20679 20692 20818 20868 20958 20969 21060 20906 20829 20922 20956 20997 20923
10060 10299 10502 10646 10868 10988 11052 11200 11355 11545 11730 11894 12013 12055 12087 12168 12276 12188 12100 12062 12118 12137 12132 12111 11965 12036 12075 12208 12293 12368 12384 12324 12302 12355 12311 12187 12097 12066 12034 12045 12172 12040 12006 12013 12065 11841 11721 11613 11479 11398 11383 11343 11399 11437 11524 11529 11608 11529 11578 11610 11712 11853 11966 12039 12033 12138 12307 12355 12338 12353 12459 12531 12724 12748 12798 12741 12644 12841 12841 12841 12841 12841 13101 13149 13242 13267 13218 13282 13340 13321 13416 13524 13732 13822 13807 13895 13955 14331 14630 14869 15098 15402 15620 15778 15971 16103 16153 16394 16520 16589 16779 17047 17282 17351 17472 17574 17713 17677 17695 17804 17807 17893 18052 18194 18455 18650 18804 18948 19003 19084 19169 19227 19297 19279 19185 19218 19286 19348 19391 19401 19299 19401 19462 19442 19492 19581 19649 19594 19620 19600 19683 19657 19590 19522 19407 19384 19353 19338 19365 19437 19472 19343 19272 19212 19212 19062 18876 18846 18726 18610 18505 18335 18269 18086 17792 17631 17485 17433 17326 17248 17288 17390 17371 17321 17334 17372 17374 17295 17187 17250 17396 17427 17525 17699 17856 18030 18108 18198 18397 18477 18602 18722 18893 18974 19030 19120 19266 19226 19267 19194 19201 19197 19201 19291 19471 19526 19530 19498 19392 19328 19308 19212 19241 19284 19385 19528 19581 19688 19705 19723 19814 19625 19625 19625 19625 19562 19962 19934 19918 20025 20093 20264 20438 20520 20613 20615 20714 20816 20847 20914 20917 20892 20750 20794 20851 20930 20892
10227 10529 10654 10801 11019 11199 11249 11418 11506 11681 11836 12012 12103 12233 12289 12390 12538 12387 12346 12236 12329 12347 12279 12216 12055 12119 12158 12292 12396 12413 12451 12404 12462 12418 12440 12432 12275 12315 12277 12295 12397 12345 12233 12251 12182 12022 11918 11821 11789 11689 11754 11651 11748 11715 11714 11789 11814 11707 11815 11878 11880 11983 12134 12158 12100 12202 12317 12365 12282 12347 12521 12626 12691 12720 12813 12785 12939 12870 12870 12870 12870 12847 13112 13186 13185 13124 13182 13208 13294 13397 13462 13609 13851 13835 13836 13999 14022 14402 14720 14844 15044 15270 15552 15789 15944 16107 16231 16443 16531 16751 16941 17226 17336 17365 17470 17630 17797 17798 17807 17834 17850 17899 18056 18309 18587 18776 18945 18949 19063 19143 19162 19249 19256 19140 19107 19137 19206 19217 19286 19253 19220 19323 19354 19335 19376 19329 19326 19361 19410 19392 19496 19456 19368 19403 19236 19221 19281 19289 19394 19389 19478 19396 19299 19164 19179 18955 18827 18812 18801 18660 18499 18315 18125 17915 17757 17662 17422 17351 17312 17296 17276 17349 17358 17327 17434 17446 17409 17232 17215 17357 17516 17577 17683 17768 17952 18029 18180 18313 18400 18411 18516 18656 18810 18876 19003 19103 19238 19241 19326 19279 19158 19156 19207 19321 19388 19326 19328 19354 19268 19160 19227 19074 19084 19163 19235 19309 19380 19532 19579 19592 19503 19528 19528 19528 19528 19528 19670 19671 19714 19776 19831 20036 20123 20241 20298 20368 20533 20628 20647 20620 20656 20674 20607 20602 20728 20750 20870
10438 10684 10898 11134 11271 11343 11413 11505 11610 11793 11859 12028 12215 12342 12382 12467 12680 12564 12480 12411 12424 12436 12426 12356 12196 12298 12357 12459 12469 12520 12569 12573 12642 12620 12672 12616 12443 12466 12418 12459 12502 12504 12474 12360 12354 12245 12152 12065 11991 12009 12032 11990 12016 11919 11937 11965 11973 11918 11973 11992 12126 12140 12181 12143 12092 12196 12354 12292 12230 12443 12561 12554 12653 12737 12854 12780 12958 12903 12903 12903 12903 12862 13092 13150 13203 13109 13050 13100 13181 13414 13559 13727 13898 13893 13877 14015 14030 14353 14703 14851 15069 15227 15406 15659 15878 16013 16196 16364 16660 16836 17075 17335 17503 17501 17576 17777 17910 18005 18038 18061 18006 18044 18176 18385 18700 18817 18971 19066 19069 19141 19278 19319 19293 19113 19020 19138 19130 19194 19235 19159 19100 19216 19251 19269 19163 19167 19115 19169 19208 19289 19275 19301 19227 19248 19146 19193 19194 19240 19367 19436 19425 19379 19248 19203 19112 18939 18880 18835 18775 18632 18536 18280 18079 17920 17843 17634 17449 17370 17289 17261 17321 17263 17285 17442 17494 17367 17320 17249 17297 17438 17624 17705 17733 17781 17933 18005 18149 18297 18331 18481 18544 18650 18805 18902 18930 19102 19249 19229 19301 19245 19154 19264 19279 19279 19183 19144 19216 19238 19191 19072 19026 19017 18944 19073 19120 19149 19285 19354 19428 19375 19367 19462 19428 19428 19428 19428 19188 19476 19446 19524 19482 19753 19919 19946 20021 20183 20322 20404 20440 20440 20389 20329 20345 20447 20493 20595 20754
10700 10974 11144 11318 11390 11444 11580 11652 11620 11845 12098 12270 12434 12519 12657 12763 12850 12706 12589 12602 12530 12470 12492 12505 12412 12491 12471 12546 12551 12550 12658 12722 12759 12687 12732 12600 12487 12484 12508 12663 12753 12642 12568 12443 12431 12448 12321 12310 12166 12230 12189 12210 12229 12157 12165 12184 12139 12055 12129 12176 12369 12341 12238 12233 12181 12327 12365 12364 12306 12437 12484 12606 12764 12815 12822 12700 12980 12933 12933 12933 12933 12871 13099 13122 13108 13101 13014 13066 13216 13372 13566 13782 13987 13960 13922 14014 14118 14349 14633 14824 15135 15238 15462 15643 15864 16103 16280 16435 16700 16974 17133 17416 17658 17658 17715 17866 17918 18008 18110 18182 18159 18228 18286 18490 18770 18955 19040 19204 19263 19228 19264 19221 19239 19041 18980 18983 19011 18985 19017 18988 19010 19034 19091 19072 19031 19030 18927 18976 19089 19075 19101 19057 19124 19103 19059 19111 19070 19096 19265 19348 19265 19232 19188 19125 19033 18962 18898 18866 18792 18661 18458 18258 18001 17809 17758 17571 17433 17371 17414 17366 17353 17317 17290 17356 17443 17447 17383 17484 17444 17579 17686 17718 17746 17836 17922 18032 18119 18229 18213 18413 18458 18586 18710 18859 18977 19166 19279 19298 19318 19275 19252 19257 19206 19216 19069 19037 19001 19060 18954 18839 18837 18775 18743 18786 18874 18933 18926 18996 19152 19217 19198 19396 19328 19328 19328 19328 19157 19178 19144 19152 19264 19447 19634 19653 19760 19834 20009 20070 20133 20196 20158 20148 20169 20263 20356 20419 20589
10997 11210 11340 11481 11614 11695 11790 11818 11745 12046 12236 12430 12552 12749 12849 12994 13014 12813 12741 12689 12523 12592 12587 12636 12656 12559 12537 12514 12580 12715 12867 12926 12965 12892 12900 12771 12596 12601 12696 12786 12934 12773 12658 12578 12619 12645 12581 12465 12405 12422 12408 12494 12559 12533 12386 12390 12285 12247 12317 12388 12550 12451 12345 12333 12284 12379 12359 12289 12276 12327 12431 12539 12754 12733 12835 12746 12980 13010 13010 13010 13010 13050 12983 13045 13025 13069 13033 13159 13246 13393 13547 13779 14002 13955 13997 14046 14126 14355 14670 14888 15195 15358 15460 15710 15889 16219 16453 16630 16779 17070 17305 17527 17801 17802 17912 17867 17920 18082 18184 18161 18239 18260 18409 18605 18836 18993 19036 19217 19376 19375 19355 19229 19137 18996 18976 18966 18863 18827 18817 18969 18998 18985 19036 19033 18996 18868 18815 18887 18882 18913 18920 18932 19056 19023 19090 19013 18961 19031 19118 19210 19178 19218 19242 19157 19055 19033 18944 18858 18684 18567 18459 18180 18010 17808 17712 17501 17348 17423 17457 17512 17448 17445 17411 17378 17456 17527 17552 17633 17614 17641 17697 17663 17726 17744 17890 17924 18064 18149 18147 18255 18330 18448 18587 18778 19051 19108 19190 19255 19300 19223 19224 19142 19116 19076 19016 18966 18899 18876 18780 18697 18528 18554 18637 18595 18631 18717 18679 18784 18959 18947 18992 19361 19293 19227 19227 19227 19092 19027 18841 18891 19015 19197 19342 19434 19552 19635 19809 19803 19893 19840 19889 20025 20103 20166 20273 20299 20397
11258 11424 11596 11671 11837 11831 11970 11863 11853 12200 12421 12559 12669 12734 12830 12975 13100 12965 12883 12758 12629 12609 12689 12715 12777 12777 12714 12759 12814 12834 12911 12959 12968 12917 12982 12937 12801 12850 12868 12947 13135 13020 12886 12936 12890 12885 12836 12700 12524 12636 12664 12694 12787 12714 12584 12571 12463 12514 12476 12566 12636 12580 12482 12486 12426 12473 12440 12378 12285 12384 12542 12661 12682 12759 12909 12806 12980 13057 13057 13057 13057 13159 12959 12998 12904 13073 13076 13168 13331 13507 13625 13829 14024 13960 14043 14099 14235 14379 14626 14935 15176 15407 15512 15650 15900 16181 16419 16601 16732 17135 17401 17583 17862 17818 17815 17791 17903 17934 18114 18152 18220 18223 18378 18505 18645 18901 19062 19251 19381 19347 19220 19177 19093 19016 18924 18855 18805 18702 18720 18812 18866 18892 18873 18919 18794 18764 18632 18656 18772 18799 18737 18741 18825 18737 18826 18871 18829 18862 19017 19122 19125 19112 19125 19081 18976 18853 18890 18689 18521 18457 18387 18216 18118 17916 17657 17469 17355 17511 17505 17516 17512 17482 17511 17469 17510 17558 17566 17687 17648 17724 17795 17874 17914 17914 17975 18059 18137 18114 18176 18227 18317 18430 18596 18765 18940 19081 19138 19151 19258 19093 18982 18913 18974 18835 18824 18765 18727 18759 18692 18621 18409 18337 18314 18348 18372 18552 18587 18639 18860 18845 18807 19291 19224 19126 19092 19092 19026 18961 18858 18793 18774 18950 19176 19284 19377 19442 19490 19495 19603 19696 19790 19838 19980 19993 20073 20105 20096
11435 11717 11878 11936 12031 12080 12072 12007 12070 12298 12508 12638 12768 12860 12932 13099 13289 13186 12969 12851 12747 12779 12801 12864 12975 12883 12831 12881 13018 13080 13049 13050 13030 13033 13100 12969 12891 12938 13065 13132 13230 13226 13120 13157 13177 13095 12970 12825 12693 12805 12797 12923 13056 12928 12869 12838 12718 12766 12754 12786 12799 12649 12519 12526 12488 12616 12635 12522 12406 12431 12528 12646 12677 12790 12912 12880 13022 13156 13156 13156 13156 13210 13054 13012 12904 13001 13162 13297 13378 13532 13757 13828 13947 13968 14032 14121 14284 14454 14661 14952 15188 15422 15581 15637 15794 16077 16388 16589 16805 17102 17374 17562 17865 17872 17780 17769 17879 17860 17944 18087 18104 18209 18252 18366 18573 18861 19134 19261 19422 19337 19152 19051 18988 18991 18942 18802 18654 18646 18683 18703 18849 18750 18761 18749 18718 18589 18533 18592 18666 18569 18474 18442 18496 18531 18536 18646 18659 18767 18835 18996 19078 19113 19022 18984 18844 18746 18739 18559 18384 18426 18384 18331 18160 17912 17694 17616 17451 17536 17649 17583 17630 17620 17669 17543 17520 17600 17672 17700 17705 17765 17950 18016 18021 18040 18100 18101 18168 18154 18185 18228 18360 18527 18642 18805 18877 19033 19075 19097 19207 18984 18830 18782 18725 18575 18519 18479 18452 18508 18497 18450 18285 18194 18090 18111 18099 18296 18439 18522 18665 18711 18698 19255 19190 19092 19024 18990 18957 18891 18787 18719 18578 18783 19005 19119 19191 19217 19298 19261 19338 19462 19614 19671 19803 19855 19796 19801 19867
11706 11932 12126 12165 12216 12196 12235 12140 12214 12336 12560 12657 12783 12946 13015 13151 13286 13199 13144 13070 12887 12933 12868 12918 13002 13010 12998 13079 13188 13214 13136 13146 13102 13154 13160 13114 13079 13191 13265 13224 13278 13368 13313 13302 13286 13193 13128 13052 12929 12965 13018 13087 13219 13150 13062 13107 12993 12893 12940 12946 12895 12790 12777 12741 12747 12693 12721 12632 12536 12608 12637 12762 12716 12834 12976 12844 13046 13207 13207 13207 13207 13234 13043 12967 12925 13064 13132 13275 13389 13494 13783 13910 14023 14106 14144 14255 14438 14540 14762 14871 15029 15352 15487 15597 15824 16143 16473 16667 16878 17075 17322 17616 17786 17756 17741 17779 17832 17870 17929 18109 18197 18196 18310 18470 18574 18821 19115 19164 19389 19286 19102 18949 18888 18869 18860 18708 18644 18635 18550 18535 18586 18642 18625 18575 18413 18423 18384 18414 18443 18396 18364 18334 18261 18257 18379 18415 18478 18567 18730 18804 18881 18875 18719 18664 18597 18566 18608 18468 18380 18318 18286 18236 18117 17975 17780 17566 17466 17603 17607 17672 17627 17682 17629 17629 17572 17636 17693 17705 17750 17836 17914 18082 18087 18072 18196 18104 18151 18176 18101 18223 18287 18453 18488 18657 18808 18793 18859 18932 18973 18887 18781 18613 18630 18446 18351 18365 18274 18288 18343 18283 18076 18069 17948 18015 17985 18061 18160 18318 18422 18477 18514 18581 19126 19028 18959 18890 18890 18857 18753 18684 18513 18629 18806 18831 18907 18874 18934 18986 19143 19276 19446 19540 19605 19625 19660 19741 19755
12022 12082 12257 12311 12376 12326 12318 12276 12321 12347 12491 12702 12845 13070 13185 13283 13381 13364 13233 13209 13116 13058 13010 13066 13083 13070 13186 13304 13297 13235 13276 13255 13223 13244 13184 13225 13338 13368 13382 13416 13369 13465 13549 13473 13514 13495 13396 13244 13177 13177 13216 13378 13427 13447 13344 13361 13280 13113 13070 13053 13005 12961 12956 12896 12921 12835 12875 12841 12730 12779 12824 12889 12853 12947 12998 12947 12937 13283 13283 13283 13283 13283 12974 12893 12939 13127 13212 13243 13286 13494 13696 13911 14095 14123 14175 14279 14490 14632 14747 14927 14989 15230 15467 15635 15931 16235 16474 16716 16872 17100 17226 17565 17818 17755 17741 17767 17765 17819 17988 18124 18192 18243 18244 18390 18519 18776 19002 19147 19280 19217 19125 18948 18884 18832 18703 18674 18676 18616 18498 18483 18448 18502 18440 18304 18189 18197 18320 18236 18203 18267 18252 18148 18101 18050 18115 18208 18208 18351 18547 18620 18782 18660 18508 18477 18414 18368 18429 18328 18262 18296 18236 18188 18164 17958 17764 17629 17567 17588 17671 17669 17675 17728 17683 17661 17667 17675 17673 17778 17792 17846 17975 18096 18270 18210 18279 18163 18150 18123 18084 18163 18204 18340 18409 18461 18614 18656 18721 18767 18860 18717 18608 18485 18422 18242 18126 18110 18031 18020 18063 18040 17996 17955 17788 17845 17777 17831 17966 18074 18192 18246 18362 18395 18454 18995 18925 18823 18792 18792 18691 18626 18544 18475 18561 18531 18580 18596 18684 18805 19020 19100 19278 19411 19471 19450 19552 19566 19532
12129 12211 12228 12418 12515 12496 12428 12471 12441 12465 12573 12764 12849 13134 13241 13378 13510 13504 13389 13298 13238 13219 13162 13204 13253 13297 13292 13229 13285 13319 13427 13311 13249 13210 13187 13303 13423 13437 13456 13379 13369 13325 13399 13365 13426 13424 13371 13196 13087 13157 13228 13306 13348 13307 13216 13244 13174 13108 13043 13051 13011 12947 12973 12995 12971 12848 12875 12812 12752 12900 12916 12946 13000 13124 13165 13023 12996 13357 13357 13357 13357 13357 13243 13225 13172 13247 13287 13395 13384 13604 13790 13991 14248 14305 14280 14399 14586 14791 14874 14973 15111 15273 15589 15704 15996 16242 16444 16679 16917 17134 17248 17485 17622 17664 17707 17760 17739 17898 17982 18167 18273 18191 18205 18262 18358 18569 18772 19039 19199 19068 18983 18833 18860 18718 18565 18611 18661 18637 18515 18423 18426 18272 18261 18124 18079 18058 18161 18081 18123 18152 18058 18048 17986 18081 18075 18134 18204 18373 18506 18611 18762 18617 18438 18350 18371 18226 18231 18197 18129 18145 18148 18106 18146 17933 17711 17610 17485 17559 17556 17532 17549 17596 17682 17692 17730 17685 17665 17752 17814 17861 17896 18092 18221 18303 18370 18280 18180 18149 18177 18169 18232 18331 18412 18580 18711 18705 18765 18831 18852 18772 18561 18477 18355 18240 18138 18105 18011 17995 17990 18021 17937 17906 17766 17836 17756 17871 17898 18094 18151 18240 18349 18324 18404 18931 18857 18755 18696 18669 18636 18574 18495 18448 18584 18629 18544 18645 18748 18959 19089 19116 19128 19297 19367 19450 19469 19467 19443
12110 12267 12327 12511 12579 12511 12557 12605 12568 12642 12705 12890 12960 13204 13325 13454 13571 13565 13477 13513 13455 13425 13409 13407 13390 13375 13272 13260 13367 13470 13463 13440 13315 13246 13304 13397 13397 13412 13493 13366 13351 13274 13288 13299 13337 13325 13377 13308 13124 13190 13261 13275 13195 13149 13050 13026 12971 13093 13108 13074 12935 12987 12977 12976 12942 12947 12952 12781 12717 12927 13025 13111 13134 13210 13212 13191 13052 13405 13405 13405 13405 13405 13427 13367 13418 13396 13438 13553 13548 13746 13991 14124 14298 14423 14509 14582 14739 14907 14983 15090 15166 15364 15600 15827 15986 16133 16324 16552 16851 17031 17177 17282 17470 17527 17681 17724 17841 17908 17907 18054 18261 18221 18162 18264 18300 18500 18658 18895 19065 18962 18893 18768 18740 18613 18498 18553 18594 18589 18470 18349 18305 18127 18046 17960 17919 17880 17966 17950 18024 17995 17971 17923 17941 18001 17995 18095 18116 18313 18391 18480 18668 18536 18284 18340 18273 18099 18047 18088 18013 18042 18054 18056 18047 17915 17727 17564 17518 17528 17515 17521 17530 17552 17559 17558 17673 17677 17700 17713 17809 17908 17935 18140 18291 18348 18336 18216 18200 18184 18240 18204 18268 18329 18414 18534 18747 18778 18873 18946 18907 18792 18557 18526 18383 18385 18273 18085 18008 18067 18029 18006 17939 17881 17777 17766 17789 17872 17860 18045 18112 18206 18313 18254 18261 18388 18784 18686 18630 18556 18556 18528 18452 18408 18543 18613 18618 18748 18823 18966 19099 19071 19088 19187 19207 19326 19351 19418 19417
12239 12394 12460 12560 12702 12677 12702 12640 12666 12739 12903 13031 13157 13262 13401 13475 13620 13575 13528 13581 13541 13566 13592 13482 13547 13434 13290 13357 13344 13397 13526 13473 13485 13437 13493 13471 13436 13394 13418 13350 13408 13287 13184 13271 13324 13265 13313 13358 13258 13262 13215 13157 13105 13100 13079 12978 12875 12975 13106 13116 12997 13045 13097 13110 13059 12999 12982 12943 12830 12987 13051 13104 13224 13218 13289 13241 13647 13501 13501 13501 13501 13476 13528 13540 13568 13605 13691 13681 13602 13786 14100 14115 14300 14432 14573 14696 14887 14992 15063 15144 15340 15542 15706 15977 16037 16226 16377 16500 16685 16860 17031 17213 17324 17473 17561 17714 17906 17954 17999 18079 18228 18291 18191 18274 18236 18415 18537 18767 18982 18881 18840 18780 18616 18543 18374 18466 18391 18387 18318 18212 18083 18084 17974 17874 17792 17820 17775 17802 17880 17936 17941 17941 17911 18026 18038 18158 18163 18297 18375 18507 18617 18422 18209 18185 18157 18104 18002 17889 17872 17895 17920 17969 17933 17865 17683 17601 17526 17595 17605 17563 17599 17643 17587 17565 17652 17756 17740 17845 17890 17885 18011 18113 18248 18199 18288 18152 18103 18126 18155 18192 18204 18311 18490 18644 18786 18786 18768 18855 18814 18686 18455 18439 18317 18262 18254 18097 17945 17996 17894 17960 17898 17864 17826 17868 17877 17863 17922 18018 18068 18160 18228 18254 18222 18290 18365 18621 18569 18500 18480 18480 18433 18390 18337 18588 18564 18763 18896 19065 19182 19138 19205 19143 19115 19189 19270 19330 19292
12421 12481 12505 12637 12833 12869 12837 12782 12836 12944 13002 13163 13330 13440 13563 13666 13706 13745 13706 13642 13687 13652 13698 13631 13684 13543 13400 13334 13340 13454 13500 13535 13639 13660 13611 13660 13583 13465 13352 13392 13351 13312 13208 13229 13246 13333 13367 13363 13302 13259 13282 13153 13022 12970 12995 12915 12829 12893 13053 13072 13090 13177 13143 13111 13099 12968 12945 13003 12955 13090 13204 13196 13310 13300 13392 13411 13706 13577 13577 13577 13577 13500 13670 13780 13811 13828 13867 13792 13754 13925 14103 14177 14293 14427 14564 14781 14932 15072 15263 15304 15449 15652 15923 16101 16190 16246 16380 16481 16637 16842 16950 17056 17153 17350 17446 17630 17866 17980 17969 18123 18198 18315 18307 18278 18235 18321 18428 18607 18816 18771 18777 18695 18572 18503 18347 18308 18275 18253 18222 18032 17942 17999 17943 17890 17742 17733 17675 17747 17836 17903 18022 18014 17997 18032 18103 18212 18274 18316 18440 18484 18463 18316 18187 18124 18086 18017 17909 17788 17684 17725 17730 17745 17765 17688 17612 17611 17631 17671 17639 17576 17577 17594 17549 17640 17686 17793 17868 17932 18005 17987 17986 18092 18096 18161 18163 18080 18111 18107 18105 18128 18256 18305 18467 18592 18744 18679 18635 18702 18754 18561 18429 18351 18311 18187 18172 18113 17988 17970 17864 17918 17965 17894 17842 17887 17854 17882 17878 17974 18105 18067 18122 18116 18164 18250 18227 18591 18543 18475 18418 18418 18396 18356 18304 18587 18592 18764 18922 18991 19139 19137 19248 19141 19108 19157 19208 19216 19290
12518 12655 12642 12753 12838 12882 12914 12862 12913 12910 13064 13170 13306 13402 13530 13632 13636 13634 13724 13720 13676 13626 13728 13716 13708 13601 13520 13456 13348 13493 13575 13605 13700 13708 13576 13582 13566 13438 13376 13415 13373 13365 13222 13278 13269 13296 13404 13305 13360 13271 13344 13124 13002 12980 13035 12878 12735 12895 12997 13032 12927 13077 13048 12983 13050 12996 13006 13129 13140 13144 13339 13383 13420 13521 13571 13834 13738 13657 13657 13657 13627 13549 13853 13848 13870 13952 13942 13922 13894 14093 14194 14273 14306 14460 14650 14831 14977 15046 15194 15329 15555 15717 15815 16056 16216 16337 16416 16589 16654 16757 16884 17074 17177 17271 17448 17674 17829 17836 17932 18026 18046 18190 18212 18236 18228 18331 18456 18554 18817 18729 18754 18592 18532 18453 18264 18198 18165 18145 18073 17922 17799 17894 17932 17787 17694 17715 17701 17781 17731 17863 18048 18052 18013 17993 17948 18053 18060 18121 18276 18387 18490 18259 18087 18092 18094 17984 17769 17682 17637 17600 17611 17591 17577 17539 17518 17594 17563 17545 17638 17535 17476 17564 17550 17583 17582 17631 17708 17761 17901 17935 17856 17984 18021 17964 18039 18016 18006 18047 18005 18155 18232 18315 18429 18592 18684 18706 18635 18701 18708 18475 18354 18293 18285 18248 18214 18223 18122 18046 17874 17935 17967 17976 17884 17917 17892 17846 17812 17895 18060 18092 18164 18111 18241 18280 18211 18222 18493 18429 18360 18360 18360 18341 18291 18557 18554 18704 18818 19000 19108 19087 19157 19163 19123 19066 19097 19133 19176
12687 12746 12872 12860 12914 12951 12959 12941 12900 12971 13135 13201 13301 13422 13521 13605 13669 13614 13661 13595 13562 13642 13632 13621 13687 13658 13521 13452 13389 13481 13551 13665 13719 13680 13616 13546 13553 13494 13528 13448 13392 13301 13291 13283 13341 13368 13328 13333 13409 13329 13310 13155 13044 12997 12970 12868 12746 12903 12967 12978 12891 12910 12892 12940 12964 13060 13165 13204 13227 13259 13398 13463 13567 13578 13629 13897 13802 13744 13744 13744 13652 13572 13995 14011 14049 14014 14102 14079 14036 14107 14239 14257 14337 14481 14659 14807 14898 15075 15252 15375 15547 15695 15820 15951 16161 16286 16426 16582 16706 16735 16868 17031 17134 17194 17371 17581 17710 17820 17930 17899 17977 18051 18177 18290 18279 18449 18504 18584 18761 18735 18708 18547 18510 18325 18268 18197 18032 18004 17876 17719 17667 17817 17853 17780 17708 17743 17766 17766 17714 17910 18010 18071 18069 18036 17913 17919 17955 18024 18169 18275 18438 18234 18030 18035 17976 17832 17664 17597 17503 17422 17404 17495 17462 17506 17434 17510 17533 17511 17538 17406 17355 17434 17456 17485 17551 17527 17590 17658 17791 17751 17735 17850 17862 17857 17967 17895 17836 17894 18032 18151 18314 18450 18469 18653 18724 18673 18543 18530 18563 18417 18327 18320 18209 18152 18150 18196 18140 18005 17868 17837 17889 17978 17952 17904 17811 17851 17810 17945 18085 18093 18127 18158 18233 18291 18256 18260 18265 18388 18310 18310 18310 18310 18279 18463 18536 18709 18780 18911 19135 19063 19085 19138 19099 19134 19087 19167 19173
12769 12841 12956 13042 13032 13032 12994 12913 12948 12996 13166 13266 13360 13422 13508 13666 13705 13607 13595 13552 13573 13654 13642 13649 13798 13752 13612 13514 13511 13609 13546 13643 13643 13676 13596 13495 13450 13474 13478 13456 13438 13335 13388 13354 13425 13412 13425 13294 13327 13288 13252 13143 13158 13068 13075 12899 12752 12768 12791 12799 12765 12809 12922 12942 12906 13021 13130 13244 13231 13281 13354 13487 13620 13679 14023 13948 13857 13828 13828 13772 13678 13595 14122 14127 14076 14143 14233 14258 14225 14265 14239 14292 14399 14514 14531 14739 14892 15150 15311 15510 15642 15703 15866 15984 16205 16306 16429 16638 16745 16789 16976 17045 17064 17156 17236 17412 17608 17800 17866 17863 17909 18066 18128 18295 18294 18345 18368 18553 18645 18608 18564 18494 18515 18384 18302 18168 18022 17959 17873 17725 17601 17796 17811 17667 17626 17640 17732 17695 17768 17947 18047 18025 18068 18091 17963 17990 17902 17924 17998 18137 18348 18180 17942 17883 17802 17720 17524 17495 17331 17284 17322 17354 17344 17413 17433 17413 17448 17450 17417 17449 17337 17352 17366 17465 17471 17392 17495 17500 17664 17680 17646 17679 17700 17732 17834 17835 17749 17915 17974 18124 18273 18381 18500 18549 18679 18684 18595 18569 18585 18503 18416 18277 18155 18092 18175 18176 18084 18001 17894 17892 17966 17913 17913 17846 17716 17756 17891 17893 18074 18048 18070 18109 18180 18108 18160 18101 18045 18019 18259 18259 18259 18259 18259 18435 18532 18620 18722 18971 19091 19098 19139 19191 19156 19155 19148 19189 19243
12915 12977 13076 13116 13088 13144 13095 13009 12941 13088 13141 13360 13505 13615 13601 13687 13761 13736 13656 13655 13640 13649 13655 13783 13802 13792 13813 13657 13606 13668 13646 13568 13551 13549 13562 13429 13354 13374 13412 13373 13374 13463 13436 13515 13541 13545 13461 13306 13269 13156 13157 13147 13237 13232 13104 12927 12798 12679 12686 12681 12667 12741 12893 12892 12875 12989 13151 13268 13347 13359 13414 13553 13671 13655 14040 13969 13910 13910 13910 13833 13735 14308 14281 14280 14186 14231 14252 14306 14315 14396 14351 14312 14358 14478 14499 14739 14892 15207 15406 15545 15700 15798 15948 16145 16324 16381 16507 16609 16792 16816 16969 16958 16920 16997 17199 17386 17618 17710 17683 17749 17920 17999 18150 18221 18321 18286 18335 18389 18517 18493 18464 18473 18434 18382 18216 18116 17898 17873 17778 17737 17642 17719 17736 17710 17588 17623 17623 17688 17826 17973 18059 18006 18050 18067 17986 17985 17881 17885 17912 18045 18170 18078 17863 17803 17620 17542 17492 17313 17224 17230 17174 17159 17242 17295 17396 17336 17397 17320 17293 17392 17371 17417 17377 17315 17290 17302 17351 17421 17615 17588 17609 17606 17562 17590 17602 17688 17717 17886 17937 18072 18167 18354 18418 18493 18579 18605 18540 18494 18553 18500 18405 18191 18089 18136 18151 18147 18070 18073 17967 18026 18020 17920 17761 17696 17661 17778 17858 17885 17962 17978 17919 17986 18093 18011 17940 17914 17904 17968 18237 18237 18237 18237 18237 18468 18462 18580 18715 18993 19169 19170 19199 19183 19193 19203 19294 19270 19304
13026 13146 13319 13242 13239 13304 13265 13145 13169 13243 13379 13572 13733 13795 13813 13937 14027 13943 13850 13836 13699 13711 13698 13859 13959 13963 13860 13794 13659 13742 13740 13734 13719 13683 13680 13642 13500 13478 13374 13349 13372 13467 13480 13537 13538 13403 13344 13306 13163 13189 13155 13080 13057 13058 13011 12863 12725 12707 12684 12745 12822 12879 13019 12968 12946 13103 13210 13234 13380 13417 13486 13560 13767 14108 14067 14004 14004 14004 13969 13897 14409 14353 14423 14403 14254 14357 14279 14343 14441 14486 14508 14499 14575 14660 14734 14919 15011 15267 15429 15631 15714 15812 16032 16122 16288 16430 16459 16577 16751 16797 16834 16888 16915 16956 17131 17358 17468 17542 17606 17755 17916 18075 18134 18255 18291 18230 18258 18349 18444 18345 18326 18375 18357 18216 18163 18014 17843 17738 17685 17614 17444 17456 17582 17504 17477 17505 17422 17522 17577 17768 17840 17907 18005 18055 17988 17941 17893 17896 17877 17907 18027 17957 17752 17730 17521 17462 17461 17374 17202 17209 17264 17132 17108 17199 17339 17397 17369 17363 17257 17368 17349 17341 17388 17375 17383 17455 17441 17481 17570 17580 17743 17672 17643 17606 17660 17705 17680 17849 17931 18024 18101 18180 18242 18352 18499 18502 18435 18340 18364 18343 18246 18186 18165 18117 18052 17985 17967 17935 17849 17866 17830 17791 17719 17691 17605 17657 17678 17786 17763 17823 17818 18040 18149 18095 17986 17989 18010 18066 18197 18197 18197 18197 18197 18351 18367 18609 18746 18874 19063 19130 19151 19139 19209 19186 19269 19307 19224
13223 13304 13447 13398 13466 13539 13491 13392 13397 13491 13528 13697 13885 13996 14101 14193 14249 14240 14162 13979 13882 13827 13853 14006 14082 14032 13859 13771 13747 13771 13895 13805 13831 13816 13863 13761 13703 13619 13424 13427 13312 13487 13545 13494 13417 13331 13317 13265 13124 13117 13073 13074 12971 12885 12843 12712 12703 12666 12741 12747 12877 12925 13021 13052 13135 13134 13228 13312 13513 13532 13499 13655 13757 14120 14080 14042 14042 14042 13996 13929 14500 14525 14508 14493 14360 14429 14401 14498 14669 14718 14710 14790 14887 14839 14918 14982 15018 15195 15501 15708 15802 15946 16036 16157 16321 16403 16439 16546 16768 16751 16779 16833 16786 16874 17088 17239 17440 17501 17582 17722 17945 18022 18112 18182 18196 18258 18265 18270 18322 18299 18162 18154 18263 18198 18089 17955 17737 17672 17482 17409 17373 17336 17378 17346 17425 17416 17320 17424 17453 17533 17663 17872 17965 17935 17975 17933 17838 17844 17778 17877 17909 17730 17616 17610 17521 17381 17327 17318 17223 17211 17283 17177 17097 17188 17406 17315 17343 17363 17273 17275 17360 17362 17415 17365 17429 17484 17631 17658 17623 17644 17782 17763 17716 17657 17661 17612 17640 17826 17931 18061 18112 18196 18189 18212 18306 18358 18310 18237 18264 18213 18096 18113 18166 18171 18061 17980 17934 17824 17717 17625 17597 17678 17761 17641 17575 17586 17615 17683 17673 17714 17844 18056 18208 18136 18065 18066 18121 18110 18176 18176 18176 18176 18187 18269 18332 18552 18779 18946 19040 19111 19171 19244 19236 19143 19147 19249 19243
13458 13482 13573 13581 13767 13755 13692 13658 13603 13688 13706 13895 13943 14116 14286 14357 14379 14366 14292 14161 14127 14106 14036 14100 14139 14065 14034 13936 13920 13982 14105 14061 14104 14079 14033 13907 13832 13654 13535 13494 13423 13465 13568 13446 13478 13368 13282 13223 13097 13080 12987 12984 12852 12815 12791 12700 12754 12705 12746 12894 12969 13118 13217 13268 13371 13300 13439 13469 13605 13680 13664 13786 14180 14144 14105 14105 14105 14080 14040 14461 14485 14527 14579 14475 14501 14508 14612 14617 14799 14918 14989 14999 15114 15143 15218 15205 15175 15319 15574 15742 15778 15944 16042 16154 16203 16324 16474 16561 16720 16704 16761 16778 16856 16906 17147 17338 17461 17466 17561 17791 17898 17957 18021 18100 18087 18149 18123 18173 18176 18206 18077 18033 18116 18049 18007 17838 17749 17569 17409 17383 17399 17359 17344 17309 17331 17301 17315 17293 17341 17479 17634 17670 17780 17776 17859 17798 17764 17699 17650 17687 17729 17595 17529 17519 17573 17482 17326 17309 17271 17157 17222 17173 17085 17200 17411 17386 17393 17400 17414 17362 17383 17479 17490 17451 17517 17605 17733 17709 17697 17705 17760 17765 17794 17747 17664 17589 17577 17753 17826 18020 18057 18163 18145 18203 18212 18189 18180 18162 18126 18089 18094 18112 18149 18080 18007 17929 17795 17767 17682 17647 17562 17587 17705 17614 17555 17616 17678 17690 17590 17733 17937 18075 18196 18175 18084 18113 18082 18099 18149 18149 18149 18149 18178 18224 18261 18459 18706 18855 18980 19060 19085 19175 19200 19170 19183 19215 19274
13788 13769 13795 13809 13944 13932 13829 13769 13763 13802 13963 14049 14044 14244 14414 14500 14541 14555 14445 14439 14373 14227 14140 14112 14128 14115 14121 14110 14017 14117 14202 14287 14321 14355 14306 14188 14039 13838 13644 13539 13444 13512 13518 13434 13457 13371 13250 13251 13157 13071 13005 12953 12812 12686 12650 12737 12738 12854 12865 13032 13096 13292 13382 13397 13491 13507 13589 13613 13647 13779 13812 14252 14209 14171 14159 14159 14146 14108 14075 14417 14581 14580 14533 14575 14604 14615 14736 14799 14917 15046 15146 15205 15305 15300 15413 15294 15290 15472 15616 15684 15812 15911 16065 16065 16109 16272 16443 16636 16729 16824 16832 16777 16820 16994 17267 17346 17460 17586 17638 17747 17856 17921 18036 18026 18065 18009 17995 18010 18113 18045 18019 18021 18078 17995 17816 17664 17641 17560 17379 17324 17353 17309 17268 17268 17297 17282 17244 17321 17335 17421 17582 17624 17715 17722 17674 17673 17577 17455 17461 17541 17576 17505 17501 17616 17605 17479 17443 17281 17243 17164 17199 17119 17142 17278 17361 17429 17466 17495 17487 17475 17392 17539 17572 17572 17550 17643 17728 17666 17672 17721 17821 17825 17781 17704 17586 17546 17527 17646 17751 17899 18087 18032 18086 18096 18029 18011 18020 17946 17980 18044 17996 18020 18133 18116 17998 17915 17720 17710 17609 17515 17413 17450 17614 17581 17614 17575 17643 17695 17625 17790 17957 18144 18253 18183 18113 18131 18132 18095 18122 18122 18122 18122 18158 18179 18272 18474 18578 18816 19030 18955 18973 18987 19084 19150 19260 19235 19225
13902 13912 14011 14027 14163 14149 14065 13908 13795 13883 14070 14122 14165 14293 14522 14698 14780 14667 14601 14534 14478 14467 14334 14328 14291 14234 14182 14212 14182 14227 14290 14329 14384 14365 14367 14198 14092 13879 13717 13681 13533 13626 13572 13425 13418 13310 13264 13229 13185 13122 13130 12934 12852 12819 12795 12867 12897 12966 12946 13104 13306 13423 13460 13425 13488 13576 13573 13755 13811 13895 14319 14286 14241 14200 14200 14185 14157 14120 14510 14607 14770 14737 14667 14746 14752 14857 14915 15036 15171 15332 15409 15419 15509 15527 15549 15461 15451 15548 15659 15752 15895 16041 16218 16173 16059 16225 16356 16533 16625 16650 16646 16676 16722 16845 17022 17151 17360 17433 17603 17702 17871 17851 17870 17987 17997 17945 17868 17922 17943 18007 17897 17861 17896 17775 17710 17551 17482 17340 17235 17215 17252 17192 17175 17167 17181 17177 17240 17285 17461 17531 17651 17682 17637 17592 17656 17560 17472 17417 17403 17455 17415 17384 17325 17421 17512 17456 17405 17318 17189 17273 17314 17186 17169 17300 17346 17473 17438 17442 17580 17540 17466 17563 17565 17624 17600 17621 17627 17664 17669 17820 17830 17748 17705 17693 17615 17538 17549 17650 17762 17877 18041 17976 18042 18021 17939 17893 17846 17875 17814 17847 17834 17932 17997 17975 17964 17885 17715 17607 17581 17490 17319 17404 17580 17542 17569 17555 17613 17572 17623 17793 17922 18103 18218 18231 18109 18028 18104 18087 18102 18102 18102 18102 18146 18351 18328 18546 18587 18802 18966 18911 18902 18993 19105 19203 19204 19178 19252
14101 14040 14108 14276 14326 14330 14211 14059 13935 14082 14192 14344 14389 14457 14625 14740 14897 14871 14779 14722 14707 14619 14545 14436 14389 14377 14355 14332 14423 14491 14495 14458 14548 14494 14482 14359 14256 14076 13770 13765 13704 13691 13592 13451 13432 13322 13221 13191 13280 13249 13146 13000 12959 13016 12987 12947 13020 13130 13115 13240 13436 13538 13599 13573 13597 13558 13644 13841 13919 14384 14352 14319 14272 14258 14242 14211 14182 14143 14552 14776 14895 14866 14842 14837 14924 15110 15217 15285 15360 15475 15549 15657 15675 15556 15559 15566 15579 15638 15806 15906 16101 16210 16273 16145 16105 16208 16256 16299 16450 16472 16476 16507 16538 16775 16886 17070 17154 17273 17476 17640 17761 17816 17807 17875 17977 17945 17826 17803 17848 17916 17896 17852 17825 17656 17603 17532 17388 17185 17075 17119 17044 17034 17035 17070 17119 17237 17318 17361 17468 17518 17605 17630 17529 17567 17527 17446 17399 17354 17428 17379 17229 17252 17157 17190 17327 17333 17353 17343 17255 17279 17326 17275 17265 17323 17448 17531 17517 17507 17601 17641 17620 17513 17527 17659 17670 17613 17626 17741 17745 17843 17832 17668 17612 17550 17600 17589 17567 17687 17837 17927 17933 17976 17904 17805 17831 17756 17772 17789 17753 17758 17672 17806 17853 17809 17885 17856 17789 17662 17513 17412 17212 17372 17441 17413 17434 17421 17495 17551 17645 17751 17944 18119 18240 18175 18009 18021 18154 18084 18084 18084 18084 18084 18397 18412 18462 18605 18672 18752 18845 18835 18912 19043 19134 19232 19215 19269 19287
