15816 15972 16141 16228 16357 16466 16536 16650 16716 16574 16552 16518 16430 16428 16385 16207 16135 16176 16120 16279 16358 16324 16346 16290 16220 16253 16233 16212 16104 16199 16204 16157 16221 16082 15971 15866 15812 15852 16006 16033 15918 15827 15780 15646 15643 15647 15745 15672 15766 15676 15451 15287 15194 15141 15173 14440 14464 14472 14488 14497 14523 14548 14578 14610 14648 14697 14722 14749 14761 14779 14799 15901 15025 15065 15083 15114 15127 15164 15199 15223 15245 15267 15297 15313 15343 15356 15371 15382 15385 15388 15283 15386 15348 15240 15081 14979 14815 15010 15084 15228 15283 15270 15200 15153 15188 15207 15253 15321 15414 15343 15237 15194 15173 15259 15423 15594 15720 15794 15796 16000 16133 16095 16063 16060 16039 16042 16134 16148 16115 16161 16083 16068 16090 15971 15922 16033 16009 16053 15960 16014 16133 16111 16142 16119 16236 16254 16273 16290 16307 16335 16353 16369 16388 16417 17121 17072 16969 17024 17063 17009 17012 17071 17153 17192 17229 17074 17020 17039 17075 17189 17284 17396 17505 17566 17678 17883 17957 17897 17742 17724 17551 17314 17156 16992 16821 16866 16768 16726 16634 16576 16385 16271 16184 16249 16298 16355 16465 16582 16616 16685 16836 16870 16793 16829 16975 16965 16928 16979 17041 17183 17200 17177 17254 17252 17167 17256 17290 17327 17411 17472 17473 17383 17279 17191 17217 17332 17565 17645 17612 17778 17816 18001 18063 18069 18197 18074 18132 18095 18226 18124 18065 17942 17897 17886 18028 17913 17899 17893 17787 17683 17721 17659 17674 17552 17481 17485 17376
15848 16014 16091 16085 16184 16331 16429 16547 16650 16500 16430 16379 16407 16367 16359 16241 16113 16033 16055 16167 16276 16314 16360 16282 16301 16323 16297 16229 16189 16146 16135 16158 16106 16012 16006 15893 15786 15828 15947 15946 15864 15745 15621 15605 15553 15587 15578 15557 15587 15524 15382 15274 15067 14362 14378 14403 14427 14437 14468 14487 14523 14548 14578 14610 14648 14697 14722 14768 14787 14823 14854 14892 14930 14979 15031 15080 15127 15164 15199 15223 15245 15267 15297 15313 15330 15338 15358 15375 15222 15154 15021 15057 15092 15056 14990 14791 14701 14779 14877 14997 15068 15037 15033 15087 15017 15115 15098 15210 15348 15244 15161 15163 15226 15322 15312 15472 15509 15555 15651 15807 15903 15818 15709 15754 15729 15796 15965 16031 16025 15981 15947 16078 16093 15993 15910 16011 16072 16020 16008 16050 16121 16214 16200 16166 16245 16273 16292 16308 16325 16345 16382 16399 16419 16442 16458 17175 17139 17121 17186 17236 17179 17216 17264 17268 17256 17204 17202 17113 17077 17255 17464 17498 17588 17701 17743 17890 18036 17914 17772 17713 17559 16838 16811 16811 16811 16811 16784 16843 16713 16711 16647 16515 16440 16407 16496 16521 16563 16670 16713 16784 16812 16864 16818 16897 17090 17148 17152 17165 17198 17243 17319 17291 17208 17276 17334 17362 17338 17335 17450 17468 17480 17433 17397 17259 17127 17288 17477 17576 17596 17668 17768 17918 17943 17930 18032 17967 17968 17967 18078 17932 17905 17853 17836 17845 17977 17925 17987 17872 17755 17708 17731 17652 17699 17645 17607 17487 17440
15877 16002 15969 16017 16165 16192 16274 16464 16467 16418 16387 16345 16357 16296 16281 16235 16071 16036 15979 16141 16177 16156 16218 16176 16227 16270 16241 16254 16209 16199 16234 16177 16062 16003 15901 15833 15757 15747 15854 15790 15740 15598 15581 15510 15457 15487 15510 15458 15469 15288 15149 15067 14265 14304 14322 14352 14380 14423 14468 14487 14523 14548 14578 14610 14648 14697 14722 14768 14787 14823 14854 14892 14930 14979 15031 15080 15127 15164 15199 15223 15245 15267 15280 15287 15301 15309 15261 15086 14972 14918 14783 14852 14887 14920 14835 14718 14718 14735 14866 14822 14896 14774 14812 14865 14812 14920 14949 15078 15184 15144 15108 15110 15119 15189 15183 15270 15358 15354 15528 15646 15703 15684 15579 15600 15561 15669 15728 15769 15731 15721 15792 15961 16067 15955 15946 15980 16031 16033 16008 16093 16185 16228 16167 16209 16241 16353 16312 16326 16342 16363 16382 16408 16436 16457 16472 16486 16491 17160 17269 17225 17153 17175 17222 17287 17305 17208 17255 17258 17194 17335 17528 17637 17630 17769 17933 17148 17126 17113 17085 17069 17021 16968 16902 16835 16766 16716 16691 16648 16629 16792 16707 16692 16572 16589 16680 16648 16605 16689 16713 16832 16776 16872 16865 16948 17107 17102 17169 17181 17245 17353 17326 17256 17241 17323 17380 17409 17396 17372 17411 17442 17442 17360 17268 17192 17151 17189 17249 17350 17409 17582 17676 17870 17932 17905 17880 17840 17789 17844 18012 17894 17872 17826 17732 17850 17876 17922 17883 17776 17686 17688 17792 17679 17730 17624 17606 17517 17456
15851 15900 15963 16065 16170 16174 16244 16347 16409 16331 16310 16353 16339 16281 16182 16158 16055 16074 15971 16015 16108 16113 16198 16169 16131 16057 16061 16162 16162 16173 16208 16190 16062 15933 15856 15800 15735 15696 15691 15629 15614 15494 15435 15438 15483 15470 15371 15423 15380 15231 14160 14180 14223 14262 14281 14333 14380 14423 14468 14487 14523 14548 14578 14610 14648 14697 14722 14768 14787 14823 14854 14892 14930 14979 15031 15080 15127 15164 15199 15216 15232 15239 15252 15256 15084 14996 15013 14928 14739 14696 14604 14572 14661 14730 14761 14681 14644 14729 14744 14730 14621 14587 14530 14535 14528 14613 14824 14872 15030 15090 15132 15121 15119 15076 15034 15125 15160 15230 15373 15444 15562 15441 15419 15369 15439 15436 15547 15528 15541 15607 15662 15827 16040 16042 15985 15981 16052 16022 16046 16115 16200 16152 16152 16090 16118 16305 16537 16346 16364 16389 16409 16418 16443 16468 16482 16494 16499 16505 17239 17164 17213 17258 17255 17269 17277 17307 17223 17278 17340 17395 17563 17181 17188 17188 17183 17178 17162 17141 17107 17069 17021 16968 16902 16835 16766 16697 16642 16592 16576 16550 16538 16519 16728 16695 16747 16672 16553 16631 16708 16842 16865 16916 16926 17089 17142 17225 17240 17264 17359 17404 17344 17296 17320 17416 17493 17541 17501 17479 17364 17361 17352 17254 17248 17184 17175 17142 17144 17269 17340 17417 17555 17711 17860 17885 17801 17696 17717 17761 17849 17891 17825 17846 17755 17789 17899 17839 17887 17834 17706 17708 17736 17717 17655 17572 17604 17584 17554
15927 15987 16070 16178 16231 16304 16317 16349 16431 16409 16411 16331 16289 16220 16217 16204 16046 16052 15894 16033 16083 16026 16038 16123 16116 16083 16098 16034 16017 16001 16066 16040 16060 15991 15841 15761 15662 15676 15641 15538 15525 15394 15356 15383 15379 15325 15363 15251 15289 15131 14130 14148 14187 14226 14244 14333 14380 14412 14441 14452 14476 14689 14692 14689 14718 14739 14749 14768 14787 14823 14854 14892 14930 14979 15031 15080 15114 15132 15163 15177 15389 15220 15025 14979 14860 14803 14765 14700 14622 14623 14601 14564 14498 14587 14682 14659 14562 14634 14600 14586 14569 14501 14501 14415 14452 14519 14572 14740 14909 14920 14992 15024 15077 15047 15039 15039 15010 15111 15303 15386 15462 15363 15370 15294 15308 15358 15302 15241 15263 15359 15537 15649 15811 15793 15762 15881 15891 15924 15932 15925 15972 15969 15952 15900 15925 16131 16272 16417 16388 16413 16431 16439 16453 16472 16492 16501 16505 16509 16513 17183 17165 17144 17252 17165 17134 17197 17204 17314 17324 17100 17135 17146 17161 17165 17175 17178 17162 17141 17107 17069 17021 16968 16902 16835 16766 16697 16642 16581 16557 16526 16516 16500 16489 16484 16760 16631 16547 16608 16684 16790 16498 16506 16527 16553 16553 16575 16588 16618 17306 17396 17364 17304 17408 17516 17523 17509 17576 17536 17380 17289 17311 17232 17238 17287 17244 17218 17222 17259 17301 17513 17629 17809 17917 17831 17826 17690 17703 17892 17994 18017 18003 17921 17832 17802 17899 17817 17884 17917 17850 17815 17882 17795 17761 17657 17688 17702 17640
15905 16031 16099 16195 16397 16409 16339 16373 16460 16471 16455 16336 16284 16255 16228 16190 16043 15970 15918 15888 15978 15915 15956 15954 16017 16108 16112 15967 15934 15938 16046 16089 16123 15935 15830 15787 15706 15649 15554 15464 15425 15336 15229 15261 15286 15283 15254 15119 15085 14053 14099 14116 14153 14191 14244 14318 14338 14374 14406 14418 14565 14659 14691 14698 14617 14657 14785 14824 14832 14850 14863 14892 14914 14928 14962 14979 15115 15063 14940 14991 15154 15007 14877 14811 14656 14692 14625 14592 14499 14493 14563 14482 14393 14390 14506 14497 14560 14570 14532 14600 14623 14467 14361 14305 14251 14291 14448 14607 14738 14809 14893 14940 15055 14967 14948 14929 14789 14986 15126 15239 15249 15202 15281 15241 15193 15140 14980 14935 14940 15156 15347 15510 15672 15634 15538 15638 15671 15696 15813 15805 15844 15722 15703 15797 15800 15843 16002 16134 16280 16434 16450 16458 16470 16479 16492 16503 16506 16509 16510 16508 16508 17120 17142 17123 17083 17083 17121 17298 17016 17060 17097 17111 17131 17152 17175 17178 17162 17141 17107 17069 17021 16968 16902 16835 16766 16697 16642 16581 16557 16518 16497 16482 16471 16465 16455 16689 16436 16441 16451 16457 16468 16481 16504 16543 16566 16589 16602 16632 16660 17264 17288 17356 17408 17555 17593 17602 17580 17549 17495 17338 17255 17295 17257 17251 17351 17352 17238 17297 17364 17600 17763 17834 17894 17911 17835 17784 17682 17879 18019 18183 18245 18144 17929 17889 17885 17879 17896 17950 17932 17922 18035 18010 17957 17812 17730 17703 17786
16070 16142 16257 16316 16578 16555 16522 16505 16391 16422 16490 16434 16268 16308 16250 16155 16083 16050 15973 15965 15963 16065 16075 16032 16003 15994 16050 15924 15902 15934 15940 16100 16140 15952 15838 15776 15618 15567 15483 15364 15287 15266 15211 15078 15081 15127 15066 15092 15039 14036 14083 14100 14137 14155 14206 14263 14284 14323 14327 14351 14406 14464 14572 14537 14601 14641 14787 14882 14876 14881 14951 14946 15038 14969 14805 14871 14877 14867 14760 14800 14955 14860 14725 14611 14427 14413 14322 14340 14415 14364 14367 14364 14402 14394 14402 14500 14460 14431 14481 14564 14566 14383 14265 14269 14124 14209 14297 14397 14531 14604 14802 14870 14876 14855 14742 14723 14634 14796 14929 14980 15093 15057 15079 14997 14983 14978 14888 14822 14719 14857 15145 15248 15357 15384 15344 15361 15439 15463 15513 15588 15719 15659 15560 15626 15707 15703 15892 15884 15950 16114 16252 16481 16491 16497 16501 16503 16506 16509 16510 16508 16508 16509 17095 17080 17060 17073 17222 16903 16948 16992 17032 17049 17113 17152 17175 17178 17162 17141 17107 17069 17021 16989 16932 16844 16750 16652 16622 16581 16557 16518 16497 16478 16456 16446 16429 16420 16420 16422 16434 16447 16463 16481 16504 16543 16593 16616 16629 16658 16685 17359 17445 17528 17593 17641 17554 17614 17623 17528 17492 17375 17287 17360 17391 17393 17312 17404 17449 17477 17480 17587 17781 17829 17862 17827 17851 17864 17732 17947 18065 18295 18449 18342 18149 18023 17910 17954 17958 17908 17930 17983 17981 18055 18015 17925 17886 17791 17839
16111 16254 16353 16450 16649 16680 16653 16492 16421 16421 16400 16408 16310 16282 16303 16283 16141 16166 16120 16099 16064 16105 16135 16040 16073 16004 16038 15892 15820 15889 15884 15988 16098 16010 15862 15753 15553 15472 15432 15319 15189 15095 15073 14995 14984 14906 14896 14979 15039 14000 14049 14066 14066 14066 14148 14200 14415 14371 14324 14291 14246 14337 14369 14430 14521 14603 14663 14802 14833 14797 14834 14853 14837 14800 14680 14696 14652 14572 14612 14649 14789 14692 14548 14360 14168 14104 14119 14174 14214 14304 14277 14278 14374 14354 14403 14416 14413 14466 14401 14459 14453 14329 14258 14171 14052 14126 14231 14338 14325 14477 14631 14745 14757 14713 14615 14627 14529 14649 14675 14852 14946 14871 14841 14806 14764 14787 14724 14586 14440 14659 14845 14938 15061 15151 15207 15113 15105 15152 15221 15393 15504 15490 15390 15415 15516 15564 15736 15676 15728 15926 16045 16136 16501 16504 16508 16508 16508 16509 16512 16516 16519 16521 16530 16546 17029 16803 16822 16862 16906 16950 17011 17049 17113 17152 17175 17183 17183 17178 17174 17617 17613 17553 17458 17372 17322 16585 16560 16540 16533 16518 16497 16478 16456 16446 16429 16420 16420 16422 16434 16447 16463 16481 16504 16543 16605 16629 16643 16671 16698 17328 17504 17672 17753 17649 17553 17512 17597 17527 17376 17376 17401 17444 17471 17372 17379 17526 17581 17593 17541 17631 17808 17840 17872 17870 17825 17893 17898 18058 18101 18372 18531 18393 18334 18218 18010 18055 18044 17948 17911 17945 18039 18104 18093 18082 17960 17873 17775
16073 16176 16344 16558 16682 16715 16726 16679 16518 16624 16626 16551 16416 16444 16382 16353 16252 16300 16290 16207 16195 16285 16234 16273 16152 16134 16058 16047 15889 15839 15864 15970 16020 15894 15785 15642 15446 15359 15270 15148 15020 14991 14969 14885 14871 14886 14829 14855 14906 13981 14015 14015 14015 14015 14116 14287 14245 14283 14203 14158 14228 14379 14403 14342 14442 14549 14562 14605 14550 14621 14802 14704 14739 14701 14594 14543 14457 14459 14365 14451 14528 14311 14201 14170 14045 13994 14037 14043 14048 14093 14126 14136 14127 14168 14203 14277 14285 14327 14267 14309 14273 14179 14205 14042 13997 14113 14092 14228 14296 14352 14505 14580 14677 14643 14517 14402 14341 14424 14480 14537 14591 14523 14538 14559 14396 14363 14362 14356 14325 14453 14643 14685 14811 14907 14919 14953 14998 14981 15041 15171 15358 15391 15370 15331 15387 15468 15530 15514 15573 15823 15931 16009 16122 16507 16511 16510 16510 16509 16512 16522 16533 16545 16558 16576 16662 16726 16773 16811 16851 16929 17011 17032 17075 17117 17152 17923 18034 17997 17876 17722 17653 17583 17516 17360 17249 17211 17088 16503 16498 16487 16476 16472 16456 16446 16429 16420 16420 16422 16434 16447 16463 16481 16504 16543 16631 16656 16669 16697 16723 17449 17523 17661 17898 17775 17685 17756 17706 17575 17580 17485 17465 17441 17477 17370 17350 17490 17540 17613 17565 17652 17788 17864 17873 17879 17874 17983 18007 18195 18227 18502 18578 18541 18493 18343 18113 18091 18063 18047 18036 18101 18071 18143 18248 18184 18221 18162 17975
16139 16289 16443 16555 16711 16805 16778 16756 16698 16747 16769 16755 16646 16603 16500 16412 16260 16339 16406 16394 16351 16375 16438 16431 16316 16263 16145 16104 15959 15880 15751 15759 15866 15693 15595 15507 15424 15282 15225 14999 14852 14862 14802 14820 14835 14738 14709 14785 14765 13940 13940 13940 13940 13940 14169 14114 14135 14158 14106 14107 14177 14299 14320 14316 14369 14362 14406 14434 14373 14468 14660 14667 14690 14596 14476 14368 14349 14270 14138 14109 14206 14031 13974 13883 13823 13839 13863 13936 13929 13931 13993 13927 13887 13979 14022 14117 14188 14190 14131 14221 14200 14161 14061 14044 13981 14001 14076 14131 14201 14322 14381 14421 14570 14573 14460 14272 14094 14107 14192 14297 14317 14306 14351 14301 14156 14071 14106 14049 14109 14193 14391 14454 14516 14576 14701 14773 14766 14829 14962 15119 15172 15238 15249 15233 15209 15226 15348 15435 15412 15617 15740 15958 16072 16165 16206 16509 16508 16508 16512 16522 16533 16554 16588 16617 16660 16696 16734 16795 16851 16908 16949 16971 17016 17063 17809 18003 18084 18022 17946 17816 17754 17679 17489 17351 17184 17090 17012 16991 16877 16468 16459 16455 16445 16440 16429 16420 16420 16422 16434 16447 16452 16462 16468 16479 16737 16737 16737 16737 16737 17466 17601 17749 17944 17905 17889 17906 17823 17691 17671 17541 17455 17525 17526 17467 17396 17461 17575 17596 17572 17700 17838 17846 17901 18021 18017 18039 18105 18292 18377 18622 18748 18682 18575 18481 18283 18171 18171 18189 18104 18170 18223 18300 18289 18345 18373 18362 18231
16264 16402 16521 16658 16758 16804 16920 16806 16785 16862 16850 16847 16718 16634 16550 16514 16361 16453 16490 16420 16451 16470 16441 16424 16360 16255 16190 16132 15943 15866 15753 15719 15819 15643 15636 15556 15442 15332 15267 15055 14779 14854 14758 14730 14751 14748 14690 14726 14709 13877 13877 13877 13877 13877 14136 14036 14054 13998 13987 13997 14010 14101 14224 14231 14156 14275 14258 14301 14240 14393 14537 14509 14470 14390 14262 14233 14110 14076 13969 13955 13892 13791 13718 13688 13693 13649 13804 13808 13758 13746 13855 13768 13813 13780 13804 13985 14022 14052 13977 14016 14015 14072 14025 13973 13930 13892 13980 14092 14153 14262 14213 14320 14342 14272 14268 14029 13908 13927 13894 14035 14067 14073 14065 14030 14011 13892 13924 13856 13939 14055 14092 14184 14321 14308 14516 14594 14607 14778 14787 14867 15056 15124 15124 15108 15101 15165 15248 15389 15404 15546 15695 15770 15865 15980 16105 16356 16553 16509 16515 16529 16537 16554 16588 16617 16660 16696 16734 16795 16830 16864 16904 16925 16970 17737 17920 18037 18164 17989 17927 17906 17801 17594 17504 17355 17168 17136 17029 17050 16952 16917 16982 16444 16431 16426 16421 16420 16418 16415 16416 16422 16426 16902 17017 16999 16777 16777 16777 16777 16777 17553 17667 17813 17928 17886 17813 17796 17831 17726 17716 17605 17541 17544 17516 17539 17496 17572 17569 17606 17671 17746 17855 17880 17964 18093 18062 18071 18158 18394 18514 18740 18897 18846 18722 18569 18391 18371 18226 18290 18258 18281 18296 18406 18423 18490 18500 18463 18386
16401 16518 16618 16762 16902 16979 17020 16959 16915 16905 16956 16846 16754 16710 16545 16504 16504 16535 16476 16438 16508 16462 16504 16461 16367 16238 16144 16045 15849 15788 15700 15776 15738 15620 15626 15596 15446 15375 15192 14944 14765 14807 14825 14823 14753 14735 14714 14682 13654 13806 13806 13806 13806 13856 14054 13999 13951 13874 13859 13853 13970 13970 14034 14017 14057 14086 14076 14174 14161 14270 14356 14300 14305 14263 14175 14052 13856 13820 13784 13773 13691 13631 13578 13502 13463 13510 13674 13702 13703 13631 13601 13570 13613 13618 13691 13779 13936 13846 13832 13838 13925 13958 13871 13836 13816 13785 13881 13959 14126 14149 14111 14140 14196 14113 14066 13876 13806 13785 13720 13751 13890 13865 13769 13807 13770 13716 13783 13729 13780 13885 13881 13946 14029 14059 14205 14449 14576 14676 14678 14760 14857 14897 14917 14967 15051 15119 15224 15301 15312 15471 15640 15752 15762 15890 16057 16256 16371 16507 16522 16539 16548 16568 16588 16617 16660 16696 16734 16760 16773 16803 16841 17484 17478 17693 17922 18046 18176 18089 17888 17864 17805 17627 17483 17375 17219 17179 17161 17019 16992 17066 17124 17121 17050 17019 17018 16880 16792 16695 16679 16764 16737 16871 17045 17052 16814 16814 16814 16814 16814 17593 17681 17758 17907 17799 17811 17849 17827 17759 17685 17721 17750 17648 17617 17542 17544 17535 17567 17682 17783 17864 17961 17924 17969 18076 18135 18273 18318 18499 18641 18848 19058 19034 18913 18796 18560 18514 18350 18304 18347 18346 18435 18464 18547 18534 18515 18473 18459
16375 16520 16604 16653 16779 16891 16961 16956 16941 16968 16974 16913 16786 16785 16731 16671 16518 16641 16594 16494 16537 16534 16634 16509 16413 16352 16273 16056 15908 15965 15916 15850 15820 15713 15641 15502 15307 15273 15237 15039 14837 14804 14763 14766 14608 14595 14619 14559 13626 13732 13732 13732 13732 13811 13927 13821 13819 13791 13674 13702 13783 13767 13890 13793 13882 13865 13929 13948 13944 14043 14033 14049 14090 14016 13888 13790 13601 13544 13567 13600 13608 13612 13532 13456 13474 13451 13562 13492 13529 13508 13417 13403 13499 13560 13596 13676 13761 13769 13714 13708 13833 13782 13774 13759 13646 13687 13702 13850 13960 13919 13951 14012 13999 13908 13752 13718 13652 13673 13722 13745 13768 13706 13699 13643 13677 13581 13613 13648 13644 13764 13799 13916 13949 14042 14125 14305 14528 14566 14521 14651 14720 14838 14839 14857 14920 14958 15071 15250 15312 15459 15564 15568 15603 15744 15945 16165 16264 16498 16701 16568 16576 16596 16617 16627 16660 16683 16705 16729 16741 16766 17354 17427 17462 17732 17930 18012 18123 18008 17952 17889 17859 17791 17700 17494 17300 17326 17236 17153 17024 17156 17184 17170 17124 17006 17018 17002 16868 16849 16776 16893 16888 16958 17156 17152 16844 16844 16844 16844 16844 17594 17813 17823 17965 18001 17958 17955 17891 17828 17790 17866 17879 17804 17762 17785 17708 17750 17752 17898 18062 18053 18219 18132 18106 18245 18301 18336 18421 18518 18751 18915 19189 19016 18986 18869 18679 18558 18591 18507 18485 18540 18638 18596 18580 18580 18583 18590 18564
16305 16507 16634 16666 16709 16744 16870 16936 16988 17013 17050 16981 16839 16854 16828 16748 16620 16711 16704 16649 16666 16702 16657 16558 16586 16503 16398 16142 16000 16068 16020 15979 15946 15803 15664 15512 15287 15234 15193 15092 14911 14745 14670 14638 14585 14603 14561 14497 13570 13651 13651 13651 13651 13786 13853 13690 13620 13650 13614 13579 13649 13610 13643 13605 13623 13676 13733 13690 13754 13758 13774 13761 13815 13767 13712 13517 13420 13416 13427 13386 13405 13435 13470 13393 13402 13429 13409 13355 13356 13306 13333 13329 13365 13350 13447 13522 13494 13605 13597 13681 13761 13706 13765 13714 13601 13604 13621 13764 13836 13801 13828 13837 13775 13704 13561 13527 13549 13545 13644 13711 13694 13569 13561 13502 13516 13510 13503 13565 13607 13633 13740 13827 13881 13982 14135 14277 14398 14393 14354 14523 14573 14667 14842 14880 14855 14894 15026 15101 15254 15388 15432 15518 15532 15701 15923 16091 16268 16561 16731 16904 17066 16627 16648 16659 16659 16659 16669 16690 17184 17270 17308 17299 17418 17670 17827 17950 18161 18106 18060 18085 18036 17895 17809 17624 17432 17404 17332 17232 17170 17126 17155 17209 17228 17099 17037 17008 16980 16987 16978 17072 17112 17168 17285 17254 16871 16871 16871 16871 16871 17703 17867 17988 18059 18056 18015 18029 17987 18030 17988 17955 17978 17945 17823 17882 17888 17954 18007 18088 18235 18261 18382 18285 18303 18392 18377 18431 18454 18562 18780 19026 19276 19048 18943 18846 18715 18661 18707 18653 18544 18678 18716 18709 18670 18624 18697 18614 18623
16313 16489 16545 16679 16718 16778 16794 16900 16912 17003 17008 16996 16906 16906 16930 16782 16732 16787 16770 16707 16708 16661 16677 16644 16536 16501 16403 16221 16196 16235 16213 16070 16058 15868 15797 15599 15291 15255 15191 15006 14871 14798 14691 14625 14418 14413 14492 14381 13544 13571 13571 13571 13571 13730 13766 13628 13530 13531 13526 13535 13576 13478 13464 13405 13433 13478 13599 13633 13710 13609 13615 13621 13572 13536 13439 13339 13154 13246 13271 13267 13275 13217 13228 13248 13268 13290 13352 13204 13232 13238 13208 13271 13254 13274 13317 13366 13408 13498 13445 13501 13519 13583 13590 13611 13543 13567 13468 13610 13621 13676 13605 13591 13581 13517 13386 13367 13270 13388 13443 13477 13455 13491 13436 13474 13495 13498 13489 13387 13393 13496 13642 13801 13853 14062 14157 14219 14292 14363 14368 14340 14434 14533 14653 14770 14736 14854 15017 15042 15107 15219 15226 15345 15461 15692 15834 16084 16281 16562 16706 16820 17017 17160 17231 17141 17121 17102 17083 17063 17103 17164 17330 17348 17391 17500 17704 18003 18212 18178 18130 18099 18034 17890 17761 17738 17636 17490 17447 17266 17182 17156 17196 17251 17220 17180 17164 17119 17067 17086 17127 17209 17249 17295 17353 17309 16880 16880 16880 16880 16880 17628 17824 17915 18107 18112 18031 18035 18099 17996 17966 18036 18109 18055 18035 18106 18183 18223 18159 18259 18360 18402 18520 18415 18358 18466 18521 18527 18588 18797 18905 19062 19335 19232 19076 19030 18823 18749 18800 18778 18687 18734 18736 18748 18702 18634 18635 18624 18664
16238 16418 16523 16584 16665 16708 16700 16782 16888 16871 16911 16979 17074 16949 16919 16912 16813 16764 16839 16691 16659 16629 16675 16597 16599 16539 16469 16343 16290 16273 16338 16223 16193 16004 15849 15575 15369 15258 15204 15010 14865 14696 14640 14509 14366 14381 14322 14304 13519 13494 13494 13494 13494 13319 13742 13623 13539 13485 13438 13550 13567 13414 13247 13171 13171 13369 13487 13537 13587 13527 13576 13473 13328 13259 13179 13081 13011 13055 13151 13132 13064 13046 13077 13150 13127 13213 13194 13055 13045 13028 13099 13130 13097 13111 13153 13236 13234 13316 13286 13283 13399 13383 13393 13473 13432 13402 13350 13429 13457 13498 13441 13428 13388 13243 13224 13186 13096 13164 13173 13168 13262 13261 13290 13410 13435 13398 13353 13315 13279 13366 13488 13674 13886 14004 14070 14164 14173 14206 14264 14284 14409 14440 14566 14594 14649 14773 14928 15027 15031 15061 15143 15214 15349 15528 15832 16102 16249 16547 16797 16885 17096 17173 17246 17261 17252 17172 17142 17092 17020 17068 17228 17250 17321 17490 17704 17980 18298 18255 18192 18080 18034 17939 17816 17741 17739 17593 17536 17341 17156 17231 17207 17200 17240 17185 17207 17216 17271 17278 17221 17203 17265 17389 17452 17400 16882 16882 16882 16882 16882 17602 17753 17930 18090 18102 18167 18163 18103 18103 18063 18139 18206 18202 18270 18370 18375 18387 18329 18460 18513 18563 18626 18557 18526 18586 18703 18689 18760 18947 19153 19237 19414 19372 19246 19177 19031 18946 18932 18904 18928 18875 18802 18708 18609 18524 18556 18602 18712
16282 16473 16517 16531 16556 16668 16650 16716 16812 16843 16857 16975 17003 16985 17021 17025 16948 17008 17051 17000 16916 16839 16858 16860 16805 16698 16583 16522 16343 16301 16240 16262 16205 15988 15841 15689 15528 15341 15108 14934 14774 14668 14615 14437 14274 14333 14303 14203 13464 13416 13416 13416 13416 13296 13670 13556 13486 13442 13327 13440 13430 13241 13106 13001 13045 13131 13195 13266 13391 13385 13331 13303 13145 13076 12999 13005 12999 13070 13127 12948 12894 12824 12899 12819 12788 12886 12892 12783 12852 12810 12924 12930 12872 12880 12987 13088 13120 13079 13048 13070 13232 13179 13207 13295 13318 13272 13214 13334 13424 13421 13345 13276 13157 13149 13095 12981 13019 13097 13057 13122 13093 13157 13143 13126 13178 13178 13232 13170 13109 13203 13326 13515 13666 13750 13896 14007 14033 14064 14147 14261 14438 14418 14600 14641 14675 14692 14831 14874 15025 15128 15159 15181 15343 15524 15801 16053 16237 16506 16669 16730 16930 17106 17188 17185 17188 17183 17146 17069 17065 17176 17169 17316 17386 17523 17701 17939 18265 18082 18043 18056 18029 17969 17993 17884 17854 17693 17448 17386 17176 17161 17136 17178 17319 17289 17293 17359 17433 17342 17223 17245 17350 17480 17533 17477 16882 16862 16862 16862 16862 16804 17819 17988 18081 18183 18231 18256 18276 18282 18249 18318 18347 18365 18379 18514 18566 18564 18630 18588 18694 18609 18699 18599 18537 18633 18792 18739 18808 18979 19232 19218 19363 19278 19183 19203 19105 19033 19061 19029 19044 18986 18975 18837 18790 18754 18784 18695 18685
16345 16525 16598 16590 16523 16587 16575 16618 16773 16761 16782 16910 16951 17011 17066 16978 17012 17138 17201 17173 17216 17085 17023 17031 17027 16860 16736 16578 16309 16308 16261 16229 16232 16032 15933 15726 15565 15336 15006 14916 14719 14659 14551 14340 14235 14217 14212 14081 13438 13345 13345 13345 13345 13252 13654 13474 13422 13405 13343 13382 13356 13263 13044 12883 12822 12926 12980 13173 13264 13277 13164 13028 13011 12907 12924 12879 12909 12974 12980 12774 12683 12689 12605 12612 12548 12515 12580 12584 12700 12666 12718 12734 12686 12764 12861 12833 12913 12949 12922 12890 12954 13004 13124 13233 13253 13150 13082 13210 13279 13253 13208 13053 12979 12899 12885 12883 12995 12998 12990 13008 12938 12987 12970 12954 13014 13085 13117 13008 12895 13031 13190 13330 13493 13585 13788 13875 14013 14063 14151 14322 14374 14427 14537 14549 14617 14729 14861 14837 14924 15102 15189 15267 15361 15496 15690 15971 16224 16385 16485 16661 16786 16978 17070 17034 17100 17139 17160 17073 17050 17187 17211 17255 17373 17586 17759 17952 18122 17964 17935 18016 17979 18055 18052 18023 17905 17630 17456 17346 17225 17177 17190 17267 17430 17380 17343 17478 17494 17359 17294 17438 17466 17544 17558 17545 16876 16837 16837 16837 16837 16785 17797 17998 18170 18273 18395 18443 18485 18406 18365 18447 18483 18526 18607 18652 18700 18799 18825 18783 18782 18695 18697 18723 18662 18739 18892 18918 18902 19018 19233 19249 19280 19162 19151 19112 19099 19135 19167 19110 19042 19107 19113 19003 18941 18869 18905 18851 18733
16416 16452 16539 16524 16469 16501 16643 16712 16705 16715 16711 16804 16973 17073 17213 17169 17161 17208 17283 17319 17390 17328 17227 17136 17090 16901 16790 16582 16463 16394 16302 16250 16292 16109 15927 15654 15500 15309 15033 14908 14721 14680 14572 14449 14316 14217 14098 13979 13390 13298 13277 13277 13277 13231 13148 13486 13412 13296 13186 13203 13099 13065 12933 12820 12803 12796 12911 12977 13089 13150 13111 13018 12922 12905 12943 12834 12808 12848 12876 12707 12645 12544 12514 12449 12356 12360 12263 12309 12379 12422 12415 12432 12434 12535 12635 12652 12791 12691 12716 12795 12872 12884 12954 13009 13063 13052 12906 13052 13124 13075 13048 12979 12824 12823 12761 12734 12873 12814 12798 12850 12749 12768 12739 12873 12877 12905 12894 12847 12839 12974 13053 13142 13278 13456 13516 13642 13873 13902 14001 14167 14271 14349 14333 14416 14437 14626 14789 14918 14999 15079 15173 15252 15302 15495 15739 15929 16058 16212 16281 16571 16775 16904 17036 17017 17127 17192 17188 17099 17153 17319 17375 17371 17455 17590 17683 17866 18022 17898 17867 17897 18007 18063 17992 17951 17895 17717 17516 17389 17341 17343 17325 17336 17440 17416 17442 17567 17576 17436 17393 17453 17396 17447 17479 17541 16870 16812 16794 16794 16794 16748 16668 18027 18157 18207 18345 18413 18610 18591 18663 18664 18586 18665 18789 18791 18693 18866 18988 18909 18998 18922 18942 18866 18869 18818 18901 18896 18882 18997 19197 19185 19228 19212 19258 19214 19240 19327 19292 19195 19239 19301 19248 19123 19032 18915 18879 18847 18683
16368 16414 16517 16499 16456 16527 16687 16709 16766 16787 16744 16833 16975 17166 17242 17241 17349 17358 17476 17518 17537 17444 17388 17338 17218 16978 16830 16650 16541 16496 16355 16318 16357 16106 15871 15664 15544 15227 14984 14798 14676 14595 14494 14382 14275 14194 14106 13956 13366 13275 13212 13212 13212 13190 13108 13323 13276 13091 12986 12927 12895 12806 12802 12780 12720 12773 12751 12841 12938 13010 12960 12944 12805 12772 12857 12749 12695 12652 12703 12584 12542 12411 12317 12243 12197 12155 12061 12126 12143 12134 12166 12131 12095 12187 12381 12473 12550 12513 12551 12628 12748 12773 12740 12771 12871 12845 12825 12887 12985 12927 12891 12868 12775 12717 12636 12677 12666 12738 12699 12595 12576 12539 12589 12715 12830 12735 12710 12744 12748 12918 12980 13110 13175 13245 13335 13518 13713 13837 13930 14043 14235 14144 14162 14303 14335 14490 14624 14855 15053 15133 15242 15293 15264 15537 15739 15809 16005 16066 16206 16489 16653 16758 16955 17056 17205 17198 17184 17237 17330 17464 17502 17555 17482 17606 17608 17770 17914 17886 17868 17874 17973 18012 18042 17989 17907 17799 17570 17503 17461 17440 17390 17490 17509 17563 17646 17602 17674 17575 17443 17420 17452 17472 17476 17421 16847 16784 16745 16745 16745 16728 16649 18020 18247 18289 18347 18459 18633 18761 18849 18785 18816 18864 18918 18804 18791 18985 19068 19062 19144 19169 19077 19046 19027 19022 19000 18941 18978 19056 19191 19301 19288 19224 19265 19255 19289 19421 19448 19386 19368 19419 19368 19283 19164 19000 18913 18750 18634
16072 16252 16311 16150 16116 16287 16362 16511 16514 16598 16672 16699 16824 16884 17059 17082 17276 17301 17343 17298 17305 17301 17237 17104 16976 16749 16627 16635 16503 16453 16287 16227 16298 16060 15736 15559 15390 15108 14930 14699 14489 14411 14343 14207 14194 14057 14032 13913 13681 13230 13169 13129 13129 13129 13069 13010 13253 13105 12996 12911 12909 12850 12872 12764 12716 12764 12808 12875 12947 12966 12976 12939 12937 12887 12859 12780 12688 12630 12738 12608 12640 12443 12360 12294 12289 12208 12192 12268 12276 12164 12048 12084 12036 12128 12207 12214 12358 12385 12392 12513 12586 12504 12499 12537 12712 12707 12730 12823 12921 12949 12884 12874 12789 12656 12641 12619 12693 12734 12692 12584 12572 12634 12645 12672 12768 12729 12694 12704 12567 12705 12826 12985 13105 13115 13249 13499 13640 13787 13836 13972 14194 14201 14185 14230 14315 14408 14655 14829 14987 14980 15066 15243 15252 15481 15715 15792 15965 16059 16221 16393 16601 16718 16927 17058 17157 17275 17276 17380 17389 17456 17472 17469 17517 17527 17573 17701 17834 17890 17810 17839 17929 17992 17981 17875 17791 17683 17534 17438 17439 17438 17296 17363 17458 17576 17607 17637 17580 17398 17316 17272 17324 17276 17361 17310 17253 16768 16690 16690 16690 16690 16612 17891 18035 18065 18143 18313 18426 18460 18532 18570 18600 18669 18644 18636 18554 18714 18897 18831 18844 18828 18842 18888 18891 18794 18859 18818 18837 18967 19022 19164 19178 19184 19187 19117 19108 19224 19307 19154 19119 19163 19061 19041 19013 18905 18814 18605 18453
15858 15964 16001 15898 15899 16064 16149 16242 16219 16369 16555 16630 16660 16701 16847 16986 17091 17157 17172 17168 17161 17032 17032 16902 16768 16617 16506 16544 16499 16396 16304 16192 16152 15871 15677 15498 15350 15028 14835 14602 14339 14256 14129 14092 14020 13919 13847 13731 13563 13208 13148 13088 13088 13088 13048 12988 13341 13178 13104 13020 12986 12968 12891 12816 12821 12811 12895 12894 12988 12997 12977 12962 12952 12909 12822 12784 12644 12665 12685 12653 12636 12568 12492 12393 12350 12370 12375 12286 12285 12119 12053 12030 12008 12020 12013 12065 12196 12154 12198 12300 12335 12388 12353 12412 12558 12591 12627 12803 12933 12862 12899 12842 12754 12711 12552 12518 12598 12654 12628 12578 12595 12559 12636 12664 12762 12795 12718 12605 12464 12546 12665 12784 12922 13072 13189 13421 13554 13609 13739 13915 14118 14161 14191 14228 14231 14359 14582 14660 14819 14903 15007 15208 15327 15535 15639 15812 15929 16089 16195 16444 16635 16763 16904 17049 17122 17229 17267 17372 17351 17358 17426 17526 17512 17563 17510 17583 17778 17791 17719 17822 17883 17911 17980 17840 17755 17624 17575 17473 17340 17374 17310 17327 17416 17482 17457 17509 17456 17237 17147 17099 17149 17130 17219 17118 17078 16732 16634 16634 16634 16634 16594 17693 17731 17842 17871 18017 18110 18183 18328 18397 18460 18382 18396 18439 18359 18571 18677 18706 18650 18581 18595 18676 18726 18627 18643 18679 18698 18777 18827 18946 19068 19035 19009 19047 19021 19086 19083 18918 18873 18825 18873 18815 18770 18706 18606 18454 18321
15694 15849 15859 15798 15747 15859 15870 16043 16001 16128 16337 16405 16510 16568 16700 16881 16927 16887 16970 16954 17007 16845 16787 16735 16556 16511 16455 16444 16412 16275 16115 15968 15941 15744 15547 15297 15163 14946 14734 14517 14284 14189 14140 14105 14033 13822 13764 13640 13475 13502 13108 13048 13005 13005 13005 12944 12877 13277 13203 13105 12968 12922 13006 12892 12881 12878 12935 12868 12942 12939 12974 12941 12944 12895 12809 12702 12617 12624 12723 12730 12717 12593 12484 12524 12481 12444 12459 12337 12331 12186 12024 11972 11874 11899 11813 11861 11993 11940 12042 12157 12124 12258 12208 12327 12410 12537 12541 12685 12775 12745 12730 12744 12758 12670 12552 12513 12548 12567 12545 12606 12653 12609 12659 12595 12608 12656 12618 12469 12397 12459 12625 12803 12874 12985 13103 13313 13475 13512 13705 13873 14042 13988 13994 14015 14026 14225 14488 14592 14714 14840 14978 15184 15394 15497 15719 15827 15946 16111 16231 16469 16698 16759 16757 16964 17067 17034 17176 17191 17254 17246 17374 17381 17457 17478 17526 17555 17681 17680 17768 17911 17898 17910 17943 17850 17828 17711 17509 17533 17385 17329 17346 17286 17363 17398 17344 17365 17259 17091 17038 17036 17047 17009 17118 17034 16991 16715 16615 16578 16578 16578 16558 16467 17588 17648 17560 17743 17861 17994 18126 18255 18249 18260 18322 18318 18245 18416 18439 18405 18397 18370 18317 18396 18468 18493 18486 18485 18554 18692 18825 18929 19018 18982 18916 18986 18939 18851 18806 18837 18789 18672 18728 18719 18657 18504 18460 18338 18132
15554 15649 15671 15617 15538 15564 15705 15848 15874 15968 16173 16247 16268 16385 16553 16725 16772 16732 16727 16791 16786 16699 16562 16454 16321 16324 16327 16280 16208 16035 15898 15786 15759 15588 15482 15196 15031 14756 14536 14439 14228 14153 14133 14082 13937 13729 13629 13543 13354 13411 13088 13028 12963 12943 12943 12902 12838 12782 13181 13112 13061 12986 12996 12915 12933 12947 12862 12884 12970 12989 13051 12993 12950 12928 12817 12705 12609 12729 12756 12789 12738 12621 12560 12562 12569 12506 12506 12370 12332 12172 11961 11852 11784 11789 11707 11743 11860 11820 11889 11981 12037 12060 12153 12173 12230 12356 12435 12615 12672 12684 12593 12606 12720 12643 12618 12511 12422 12469 12573 12623 12703 12737 12661 12613 12494 12446 12475 12406 12352 12466 12697 12847 12921 12988 13012 13208 13300 13388 13553 13762 13868 13940 13911 13854 13910 14177 14359 14491 14555 14787 15048 15217 15385 15580 15729 15914 15977 16158 16250 16535 16714 16775 16717 16838 16892 16918 17008 17032 17149 17213 17347 17269 17292 17359 17521 17552 17658 17724 17804 17929 17957 17923 17946 17835 17793 17671 17565 17568 17470 17432 17450 17364 17338 17268 17176 17109 16990 16862 16858 16823 16889 16938 16991 16933 16958 16850 16576 16501 16501 16501 16501 16425 17364 17397 17371 17519 17631 17828 17961 18055 18076 18154 18182 18196 18126 18212 18211 18081 18068 18050 18045 18137 18247 18343 18331 18394 18479 18573 18766 18867 18854 18868 18889 18862 18740 18695 18614 18600 18587 18475 18460 18462 18478 18332 18273 18084 17859
15265 15294 15380 15356 15353 15448 15537 15665 15729 15767 15975 16079 16040 16223 16366 16454 16561 16529 16512 16503 16527 16408 16349 16196 16164 16136 16179 16089 16113 15948 15669 15596 15624 15440 15213 15075 14891 14643 14468 14344 14223 14075 14008 13912 13926 13699 13632 13479 13220 13242 13338 12988 12922 12865 12865 12865 12804 12752 13167 13128 12999 12953 13042 12938 12932 12900 12845 12904 12975 13014 13069 12991 12985 12867 12844 12781 12728 12785 12708 12757 12767 12702 12588 12533 12484 12512 12497 12323 12238 12127 11910 11827 11738 11771 11767 11826 11786 11769 11834 11828 11951 11961 12063 12051 12201 12228 12287 12342 12543 12609 12578 12600 12600 12606 12556 12434 12343 12391 12448 12512 12616 12607 12654 12628 12552 12548 12464 12433 12321 12385 12602 12761 12990 12901 12917 13070 13091 13252 13405 13633 13687 13746 13712 13838 13879 14057 14309 14474 14518 14705 14928 15133 15422 15567 15700 15855 15968 16088 16240 16557 16747 16697 16690 16849 16931 16959 17056 17027 17162 17189 17260 17236 17367 17476 17557 17571 17674 17741 17828 17797 17836 17832 17698 17734 17647 17640 17491 17516 17436 17439 17348 17297 17225 17114 17058 16899 16791 16818 16842 16758 16811 16775 16789 16811 16731 16755 16558 16482 16462 16462 16462 16404 16319 17244 17268 17324 17438 17637 17819 17958 17950 18035 18149 18138 18163 18053 18086 18008 17939 17939 17890 18072 18118 18156 18082 18162 18270 18437 18613 18651 18752 18680 18676 18667 18575 18488 18358 18272 18270 18264 18253 18160 18194 18159 18059 17901 17717
14926 14988 15004 15044 15050 15133 15336 15453 15496 15585 15730 15876 15905 16041 16205 16225 16334 16289 16225 16253 16270 16204 16090 16043 16015 16025 15974 15977 15904 15723 15550 15415 15392 15292 15067 14995 14832 14642 14437 14303 14280 14156 13924 13827 13814 13683 13610 13406 13213 13145 13184 12944 12878 12824 12792 12792 12773 12723 12679 13073 13021 13035 13038 12989 12845 12817 12838 12979 13055 12986 13007 13081 13031 12961 12921 12939 12870 12844 12771 12762 12841 12708 12559 12465 12476 12478 12430 12308 12163 12133 11977 11859 11816 11849 11796 11826 11792 11763 11731 11801 11840 11820 11903 11969 12095 12141 12092 12175 12343 12419 12456 12463 12552 12485 12517 12477 12355 12411 12435 12396 12427 12479 12542 12519 12604 12560 12430 12446 12338 12364 12493 12699 12934 12930 12924 12924 12975 13157 13334 13496 13565 13555 13641 13735 13762 13952 14248 14347 14497 14758 14919 15200 15476 15613 15710 15810 15973 16097 16320 16588 16746 16751 16715 16849 16882 16978 16986 17037 17183 17295 17293 17284 17323 17497 17567 17701 17757 17689 17727 17652 17702 17625 17576 17564 17602 17630 17546 17461 17329 17296 17140 17198 17138 16977 16869 16793 16670 16655 16731 16656 16661 16571 16608 16555 16594 16578 16523 16445 16403 16362 16362 16342 16258 16217 17190 17235 17268 17470 17592 17792 17868 17894 18023 18023 18084 17959 17948 17889 17830 17753 17769 17923 17976 17951 17959 18044 18122 18262 18391 18483 18678 18524 18398 18360 18432 18281 18228 18114 17987 18074 18042 17928 17874 17831 17762 17734 17634
14756 14763 14784 14832 14834 14952 15151 15185 15363 15482 15538 15600 15627 15780 15826 15927 16041 15986 15896 15949 16067 16070 16000 15920 15895 15835 15843 15771 15699 15591 15426 15322 15188 15079 14868 14782 14621 14531 14340 14249 14189 14082 13943 13757 13726 13574 13496 13337 13200 13116 13189 13100 12856 12804 12773 12743 12743 12694 12651 12623 12956 12912 12900 12955 12805 12892 12879 12957 13048 13025 13050 13000 13006 12955 12999 12912 12869 12786 12823 12792 12894 12763 12591 12482 12421 12408 12362 12263 12243 12149 11971 11935 11783 11778 11707 11713 11727 11677 11654 11699 11708 11737 11845 11862 11947 12009 12027 12096 12118 12207 12356 12346 12400 12400 12441 12351 12268 12275 12322 12300 12330 12394 12459 12592 12572 12615 12523 12414 12390 12494 12554 12671 12869 12889 12914 12921 12892 12977 13176 13167 13257 13367 13439 13520 13673 13858 14085 14392 14523 14734 14972 15161 15477 15578 15738 15921 16008 16190 16272 16509 16754 16714 16690 16796 16834 16832 16916 17050 17171 17288 17306 17232 17271 17499 17592 17683 17753 17730 17723 17657 17656 17569 17549 17565 17613 17626 17542 17392 17280 17227 17124 17078 17055 17010 16914 16801 16591 16563 16697 16600 16572 16508 16498 16414 16394 16524 16519 16425 16383 16342 16302 16302 16221 16181 16145 17108 17254 17420 17531 17682 17803 17825 17788 17874 18019 17897 17864 17877 17863 17812 17760 17745 17673 17806 17788 17999 18111 18138 18340 18413 18479 18401 18167 18122 18149 18127 18044 17924 17744 17744 17761 17654 17631 17582 17470 17436 17413
14544 14528 14526 14676 14733 14804 14862 14953 15141 15249 15349 15359 15378 15444 15549 15594 15690 15667 15656 15772 15878 15872 15968 15925 15896 15800 15719 15600 15569 15460 15262 15150 15019 14862 14579 14504 14388 14360 14293 14202 14120 14019 13909 13673 13520 13508 13378 13315 13172 13185 13172 13111 12815 12767 12738 12709 12696 12659 12620 12596 12577 12570 12881 12887 12841 12922 12971 13011 12930 12940 13021 13028 13033 13001 12978 12961 12889 12846 12865 12914 12907 12752 12705 12565 12419 12376 12410 12293 12235 12125 12020 11887 11755 11727 11720 11602 11606 11618 11533 11631 11663 11728 11821 11847 11819 11936 11952 11975 11999 12074 12228 12209 12317 12303 12267 12231 12141 12142 12216 12248 12350 12392 12430 12567 12592 12572 12510 12500 12461 12508 12498 12680 12783 12834 12858 12859 12818 12887 12922 12947 13058 13248 13322 13432 13651 13811 14040 14396 14642 14756 14936 15150 15384 15616 15754 15953 16082 16146 16316 16482 16665 16683 16652 16708 16714 16830 16955 17046 17201 17268 17346 17316 17328 17494 17596 17720 17720 17698 17675 17654 17687 17562 17533 17534 17605 17573 17421 17319 17313 17138 17074 17104 17032 16932 16919 16783 16577 16514 16562 16526 16440 16408 16395 16291 16305 16361 16317 16383 16341 16300 16261 16227 16187 16150 16117 16088 17132 17329 17428 17577 17660 17619 17639 17779 17847 17773 17721 17729 17778 17718 17739 17667 17475 17602 17691 17853 17982 18089 18206 18319 18352 18255 18064 18012 17976 17893 17917 17720 17621 17513 17484 17452 17485 17395 17252 17251 17270
14432 14520 14512 14607 14689 14689 14830 14893 14979 15058 15159 15191 15179 15210 15304 15411 15422 15317 15330 15504 15541 15576 15614 15554 15583 15603 15587 15567 15469 15281 15195 15107 15006 14860 14678 14542 14384 14368 14233 14270 14145 13974 13948 13720 13500 13442 13299 13328 13240 13172 13128 13024 12924 12736 12708 12680 12667 12646 12601 12579 12561 12553 12536 12893 12832 12876 12869 12851 12837 12929 12986 12929 12896 12865 12872 12946 12890 12802 12848 12849 12769 12662 12618 12497 12369 12388 12373 12161 12105 11956 11915 11898 11783 11706 11728 11665 11718 11624 11503 11559 11591 11626 11743 11766 11762 11767 11763 11776 11935 11971 12096 12056 12136 12088 12135 12003 11991 12037 12101 12140 12273 12348 12346 12416 12442 12491 12517 12469 12358 12354 12459 12524 12713 12839 12888 12871 12824 12820 12916 12986 13123 13183 13295 13472 13699 13864 14018 14334 14576 14747 14986 15131 15341 15587 15764 15897 16108 16191 16423 16632 16708 16729 16776 16700 16752 16837 16931 17066 17109 17216 17328 17338 17375 17449 17485 17564 17622 17537 17543 17526 17587 17470 17433 17448 17433 17329 17239 17203 17072 17005 16807 16859 16920 16789 16771 16659 16506 16499 16434 16466 16445 16366 16275 16224 16188 16175 16154 16208 16300 16258 16221 16187 16155 16104 16071 16042 16011 15981 17338 17377 17443 17419 17538 17550 17665 17622 17444 17495 17488 17490 17394 17384 17380 17484 17571 17687 17828 17854 18033 18180 18238 18167 17982 17879 17835 17766 17633 17486 17440 17423 17353 17351 17416 17375 17230 17282 17316
14440 14400 14401 14506 14614 14667 14678 14657 14730 14796 14879 14856 14864 14915 14980 15100 15146 15094 15114 15186 15291 15216 15254 15296 15340 15297 15364 15404 15458 15242 15153 15075 14945 14808 14665 14485 14373 14338 14275 14266 14152 13990 13934 13710 13463 13383 13307 13314 13312 13197 13160 13111 12993 13056 12679 12651 12640 12620 12601 12562 12544 12536 12519 12502 12764 12710 12770 12759 12775 12800 12854 12850 12877 12868 12892 12936 12883 12851 12848 12828 12753 12680 12492 12422 12407 12379 12259 12126 12037 11901 11848 11816 11735 11744 11659 11725 11707 11601 11600 11515 11473 11532 11716 11726 11654 11689 11634 11659 11782 11816 11966 12003 12063 11987 11947 11811 11769 11946 12090 12190 12279 12305 12361 12395 12376 12359 12399 12277 12229 12290 12367 12492 12618 12703 12847 12852 12871 12882 12957 13011 13115 13249 13334 13457 13646 13880 14125 14349 14626 14817 14936 15106 15350 15588 15701 15947 16169 16343 16443 16690 16846 16796 16869 16807 16857 16945 16992 16958 17029 17079 17193 17256 17329 17404 17388 17449 17510 17478 17394 17486 17515 17360 17305 17218 17138 17072 17047 17001 16908 16758 16663 16733 16751 16708 16719 16547 16461 16472 16373 16396 16448 16260 16146 16030 16013 16010 15987 16104 16281 16238 16201 16169 16137 16104 16041 16011 15980 15949 15933 17140 17108 17261 17377 17429 17492 17366 17246 17273 17234 17249 17155 17193 17256 17440 17508 17552 17611 17696 17892 18010 18076 17992 17895 17815 17658 17556 17464 17354 17339 17282 17222 17275 17376 17330 17218 17289 17361
14283 14322 14316 14446 14481 14527 14581 14618 14629 14708 14692 14672 14705 14624 14683 14691 14752 14780 14848 14925 14979 14973 14953 15062 15063 15132 15093 15146 15223 15139 15068 14961 14847 14760 14593 14439 14246 14272 14222 14181 14113 14033 13868 13724 13506 13450 13277 13258 13299 13179 13155 13159 13145 13020 12982 12623 12613 12596 12579 12562 12529 12515 12499 12485 12473 12468 12741 12762 12734 12760 12795 12827 12822 12813 12882 12796 12759 12834 12794 12778 12743 12628 12436 12446 12412 12314 12142 12076 11974 11946 11782 11754 11759 11661 11601 11592 11669 11629 11579 11457 11414 11516 11561 11632 11646 11511 11442 11559 11589 11575 11771 11701 11762 11704 11735 11691 11647 11765 11929 12051 12148 12135 12219 12239 12208 12195 12258 12266 12235 12258 12303 12468 12700 12678 12785 12988 13049 13068 13086 13090 13046 13241 13307 13524 13603 13836 14110 14318 14538 14699 14898 15090 15334 15651 15781 16070 16207 16341 16462 16645 16855 16801 16865 16868 16857 16844 16916 16927 16906 16944 16980 17095 17288 17387 17353 17468 17511 17493 17363 17362 17374 17296 17222 17132 17050 16934 16799 16689 16714 16546 16514 16545 16564 16447 16506 16486 16430 16378 16347 16321 16292 16243 16048 15973 15922 15970 15950 15965 15943 16043 16145 16117 16087 16071 16041 15981 15950 15920 15904 15875 17004 17051 17225 17294 17418 17221 17109 17091 17012 17022 16966 17144 17199 17306 17497 17529 17563 17583 17745 17717 17830 17755 17738 17627 17555 17402 17335 17242 17166 17231 17175 17226 17315 17352 17302 17340 17309
14210 14135 14140 14290 14319 14453 14465 14565 14560 14555 14523 14517 14421 14417 14453 14409 14453 14545 14617 14756 14771 14753 14775 14779 14841 14845 14888 14949 15098 15038 14908 14799 14753 14576 14482 14421 14247 14316 14272 14192 14049 13932 13887 13726 13641 13447 13369 13236 13216 13137 13173 13219 13187 13052 12973 12890 12593 12577 12561 12544 12529 12510 12496 12482 12472 12468 12642 12706 12664 12674 12653 12759 12777 12775 12817 12780 12688 12786 12788 12757 12849 12663 12476 12457 12323 12208 12141 11950 11809 11883 11842 11828 11725 11684 11652 11602 11607 11615 11598 11495 11463 11393 11420 11452 11541 11474 11320 11300 11312 11365 11489 11513 11577 11508 11562 11637 11631 11660 11754 11857 12012 12043 11981 11922 11962 12071 12157 12200 12164 12195 12349 12457 12689 12707 12842 13025 13106 13116 13107 13157 13082 13228 13277 13479 13614 13872 14070 14235 14517 14745 14959 15164 15390 15670 15897 16106 16222 16343 16474 16629 16792 16867 16856 16876 16807 16874 16831 16762 16754 16770 16890 17017 17242 17347 17348 17482 17554 17502 17330 17275 17309 17173 17015 16986 16880 16700 16588 16474 16434 16355 16346 16298 16347 16247 16258 16257 16384 16425 16390 16348 16210 16127 15984 15964 15874 15859 15933 15825 15805 15973 16140 16088 16057 16042 16011 15981 15920 15889 15874 15844 15813 16933 17148 17170 17290 17158 17021 16982 16861 16883 16836 16980 17063 17262 17372 17411 17457 17541 17556 17505 17548 17527 17554 17482 17388 17369 17261 17163 17104 17145 17130 17301 17349 17276 17309 17255 17305
14028 14037 14020 14086 14157 14184 14165 14256 14257 14329 14287 14306 14304 14278 14238 14169 14237 14291 14392 14471 14551 14558 14605 14646 14612 14692 14660 14786 14974 14879 14674 14649 14662 14561 14341 14241 14185 14247 14168 14110 13896 13851 13819 13694 13613 13492 13309 13217 13073 12996 13055 13143 13122 13007 13003 13025 13018 12990 12536 12519 12505 12496 12492 12481 12475 12474 12480 12716 12616 12710 12649 12692 12806 12757 12741 12765 12734 12791 12852 12754 12700 12545 12412 12412 12338 12223 12042 11837 11817 11762 11819 11771 11762 11787 11759 11688 11559 11519 11575 11507 11486 11350 11291 11361 11404 11369 11337 11276 11258 11269 11442 11389 11479 11546 11489 11432 11420 11566 11592 11642 11776 11896 11886 11829 11779 11912 12060 12163 12115 12154 12300 12509 12657 12736 12830 12949 13108 13074 13045 13076 13101 13236 13309 13444 13551 13756 13895 14113 14355 14651 14956 15068 15343 15599 15780 15974 16171 16280 16501 16564 16696 16835 16843 16808 16859 16875 16857 16720 16712 16754 16839 17012 17207 17264 17365 17407 17402 17385 17227 17158 17093 16963 16839 16769 16739 16592 16489 16364 16320 16325 16324 16207 16173 16235 16265 16286 16245 16248 16233 16106 16105 15967 15885 15845 15916 15887 15863 15775 15781 15919 16026 16133 16027 16011 15980 15950 15904 15857 15841 15811 15778 15725 16961 16970 17168 16994 16853 16799 16708 16705 16696 16850 16875 17045 17074 17135 17088 17138 17212 17292 17256 17352 17315 17331 17175 17230 17119 16974 16899 16975 17109 17189 17260 17158 17213 17193 17221
13936 14013 14011 13988 13972 13888 13921 13957 13926 13974 14125 14117 14095 14074 13944 14004 13964 14008 14152 14339 14422 14391 14354 14359 14423 14464 14521 14647 14805 14730 14530 14515 14569 14426 14215 14113 14109 14115 14087 13991 13852 13759 13670 13548 13518 13356 13220 13071 12934 12909 12927 12993 13123 13020 12967 13046 13146 13052 12879 12502 12489 12482 12483 12483 12478 12479 12484 12758 12667 12706 12755 12796 12766 12685 12713 12751 12787 12771 12792 12675 12669 12513 12301 12290 12304 12101 11984 11783 11705 11701 11750 11767 11796 11842 11769 11691 11558 11544 11511 11457 11408 11297 11269 11273 11195 11236 11292 11172 11112 11205 11312 11354 11473 11479 11394 11277 11248 11358 11402 11501 11656 11725 11786 11815 11719 11919 12007 12111 12093 12195 12270 12402 12624 12724 12933 12950 13010 13008 13052 13044 13151 13176 13309 13288 13364 13596 13801 14060 14301 14575 14878 15015 15262 15466 15545 15847 16057 16248 16444 16615 16660 16719 16706 16774 16801 16856 16817 16792 16644 16664 16787 16899 17115 17248 17314 17312 17378 17330 17240 17124 16919 16841 16754 16696 16527 16478 16382 16225 16167 16225 16200 16092 16001 16094 16163 16144 16209 16033 15970 15983 15902 15892 15816 15828 15834 15853 15888 15750 15641 15694 15813 15918 16107 16161 15933 15904 15858 15824 15824 15793 15760 15706 16775 16833 16974 16744 16626 16598 16460 16541 16540 16650 16721 16846 16867 16793 16804 16952 16988 16996 16959 17119 17156 17111 17050 17019 16916 16810 16724 16782 16962 17118 17185 17074 17034 17041 17109
13738 13737 13793 13899 13914 13845 13776 13693 13752 13748 13890 13926 13885 13902 13736 13752 13838 13856 13932 14024 14125 14187 14133 14245 14325 14365 14512 14507 14555 14449 14428 14395 14323 14237 14130 14096 13992 13953 13981 13946 13897 13835 13666 13593 13434 13259 13164 13015 12936 12988 12990 12997 13089 13062 12991 13127 13188 13085 12966 12920 12475 12472 12478 12479 12479 12480 12484 12485 12683 12731 12723 12708 12657 12667 12688 12736 12760 12760 12765 12690 12701 12471 12292 12278 12204 12104 12052 11814 11704 11737 11677 11847 11927 11858 11810 11727 11576 11475 11445 11349 11361 11258 11239 11243 11192 11200 11228 11078 11062 11182 11176 11261 11279 11286 11353 11280 11134 11260 11290 11387 11423 11452 11530 11637 11633 11771 11978 12028 12053 12116 12186 12326 12515 12738 12951 13016 13071 13111 13126 13191 13197 13281 13384 13276 13329 13554 13820 13962 14089 14438 14680 14887 15174 15339 15398 15765 15930 16190 16417 16523 16673 16693 16656 16691 16696 16772 16684 16684 16630 16703 16867 16994 17152 17228 17233 17227 17275 17228 17085 16928 16813 16726 16529 16466 16336 16239 16143 16087 16020 16071 15938 15899 15917 15979 15939 15958 15986 15915 15832 15819 15784 15789 15705 15785 15743 15761 15711 15582 15485 15598 15683 15827 15911 15957 15922 15875 15828 15757 15757 15757 15723 15668 16479 16600 16724 16597 16499 16427 16364 16390 16407 16509 16493 16599 16647 16557 16621 16703 16687 16792 16711 16823 16910 16900 16853 16764 16753 16640 16568 16602 16757 16944 17034 16949 16970 16985 17063
13664 13584 13610 13666 13790 13651 13567 13522 13511 13594 13752 13777 13770 13713 13657 13591 13649 13636 13698 13740 13847 13852 13919 14003 14142 14249 14389 14407 14420 14296 14273 14240 14204 14208 14087 13945 13874 13815 13863 13905 13849 13792 13642 13594 13475 13335 13136 13041 12857 12899 12988 13121 13138 13181 13100 13125 13123 12994 12966 12864 12833 12468 12481 12479 12479 12479 12481 12477 12766 12713 12769 12667 12611 12573 12600 12716 12785 12711 12680 12624 12650 12449 12268 12212 12137 12116 12043 11935 11728 11770 11730 11896 11939 11843 11750 11754 11685 11554 11415 11364 11249 11178 11083 11073 11070 11053 11043 11010 11049 11067 11092 11096 11118 11100 11190 11126 11014 11041 11163 11111 11184 11233 11287 11457 11534 11652 11826 11893 11984 12012 12154 12304 12511 12680 12907 12949 13072 13161 13143 13249 13280 13343 13339 13252 13224 13474 13735 13847 13998 14359 14606 14838 15122 15253 15378 15648 15844 16058 16282 16427 16692 16569 16553 16551 16585 16634 16574 16671 16656 16805 16845 16925 17111 17071 17152 17237 17227 17055 16870 16836 16695 16555 16391 16237 16032 16084 16021 16035 15980 15928 15805 15766 15778 15758 15794 15791 15825 15732 15635 15604 15664 15642 15599 15640 15737 15657 15651 15496 15442 15613 15662 15614 15689 15657 15648 15563 15796 15704 15704 15704 15704 15649 16160 16305 16449 16466 16375 16394 16294 16260 16354 16348 16355 16358 16347 16344 16335 16401 16479 16523 16536 16601 16576 16519 16584 16485 16481 16422 16323 16478 16629 16736 16853 16788 16829 16843 16916
13551 13520 13601 13633 13681 13653 13485 13456 13376 13549 13606 13621 13647 13602 13581 13520 13501 13520 13494 13548 13636 13703 13717 13793 14036 14127 14095 14186 14177 14097 14071 14033 13957 13979 13870 13862 13723 13621 13647 13645 13735 13676 13641 13522 13381 13233 13145 12940 12801 12920 12929 13036 13178 13233 13230 13192 13184 13136 13011 12959 12863 12850 12484 12479 12479 12479 12479 12474 12865 12737 12777 12593 12557 12528 12467 12552 12509 12487 12407 12534 12538 12362 12277 12268 12179 12051 11942 11768 11655 11655 11750 11738 11850 11785 11703 11604 11589 11520 11464 11394 11242 11188 11070 10994 10879 10842 10936 10919 10919 10998 11147 11126 11132 11092 11207 11010 10942 10948 11011 11080 11111 11080 11136 11276 11474 11543 11820 11908 11938 12031 12079 12221 12434 12565 12775 12849 12926 12945 13009 13120 13223 13215 13250 13281 13240 13399 13689 13800 13998 14188 14527 14813 15019 15209 15311 15598 15773 16080 16291 16489 16663 16611 16553 16562 16595 16540 16500 16549 16526 16675 16789 16915 17023 17049 17056 17145 17182 16983 16804 16828 16666 16454 16342 16208 16022 16063 16089 16056 15982 15891 15801 15702 15756 15818 15774 15818 15795 15664 15567 15545 15581 15545 15577 15554 15477 15513 15406 15304 15309 15416 15494 15483 15493 15438 15493 15552 15762 15668 15630 15630 15630 15611 15516 16420 16500 16499 16401 16321 16278 16310 16282 16258 16317 16349 16321 16331 16259 16337 16464 16521 16471 16543 16527 16521 16510 16464 16310 16378 16365 16464 16665 16738 16840 16748 16768 16784 16854
13316 13397 13494 13554 13628 13591 13520 13440 13329 13435 13488 13521 13564 13549 13488 13383 13310 13303 13389 13452 13465 13540 13625 13674 13811 13877 13907 14030 14051 13902 13816 13767 13777 13783 13772 13706 13599 13557 13402 13433 13532 13561 13548 13505 13350 13177 13089 12962 12754 12857 12919 13024 13147 13180 13336 13341 13257 13119 12995 12929 12892 12922 12488 12478 12471 12471 12471 12466 12449 12827 12768 12553 12446 12423 12396 12363 12356 12248 12243 12333 12336 12356 12282 12176 12120 12036 11947 11764 11660 11665 11723 11622 11645 11683 11697 11614 11525 11540 11456 11318 11136 11032 10931 10882 10747 10737 10776 10837 10896 11043 11082 11081 11067 11020 11100 11007 10967 10885 10907 10979 10943 11070 11082 11240 11327 11471 11696 11773 11850 11991 12076 12166 12269 12454 12673 12694 12823 12885 12871 12979 13145 13167 13265 13167 13130 13345 13642 13810 13878 14117 14344 14651 14997 15103 15335 15547 15795 16082 16287 16450 16615 16638 16607 16629 16587 16462 16438 16454 16446 16504 16661 16733 16820 16979 17049 17033 17103 16906 16838 16830 16703 16419 16233 16159 16110 16054 16066 15990 16032 15960 15824 15714 15726 15750 15746 15787 15782 15653 15619 15531 15411 15462 15494 15395 15345 15305 15188 15184 15234 15276 15314 15265 15251 15289 15414 15451 15388 15630 15551 15551 15551 15551 15472 16432 16615 16534 16397 16347 16276 16306 16331 16309 16273 16345 16368 16270 16276 16395 16409 16435 16391 16425 16449 16494 16423 16374 16242 16278 16324 16490 16715 16785 16780 16744 16692 16747 16890
13208 13268 13398 13469 13570 13410 13377 13322 13303 13370 13295 13421 13437 13370 13333 13236 13177 13237 13219 13273 13302 13365 13410 13528 13559 13669 13669 13747 13873 13788 13763 13688 13697 13621 13609 13558 13362 13239 13155 13200 13297 13323 13370 13239 13176 13065 13050 12961 12837 12882 12960 13019 13143 13183 13326 13320 13349 13249 13225 13174 13076 13020 13024 12474 12453 12453 12453 12453 12432 12703 12635 12409 12286 12297 12307 12218 12284 12150 12079 12169 12219 12225 12102 12107 12101 11994 11891 11765 11698 11598 11708 11634 11524 11549 11650 11583 11590 11502 11353 11217 11051 11027 10943 10878 10738 10805 10797 10778 10826 10930 10996 10906 10918 10924 10931 10982 10988 10887 10923 10839 10828 10891 10995 11081 11238 11398 11648 11729 11712 11835 11959 12049 12212 12310 12501 12462 12552 12689 12729 12905 13012 13048 13176 13086 13015 13232 13516 13758 13882 14050 14270 14595 14888 15034 15359 15475 15757 15980 16143 16378 16565 16502 16533 16496 16508 16389 16378 16386 16438 16547 16660 16679 16809 16845 16940 16928 16980 16872 16840 16703 16618 16377 16289 16181 16137 16075 16053 16035 16065 16037 15933 15808 15781 15762 15782 15707 15666 15543 15467 15498 15340 15376 15286 15240 15182 15163 15110 15060 15012 15025 15149 15121 15069 15155 15216 15298 15267 15611 15509 15509 15509 15509 15449 16393 16576 16515 16431 16416 16411 16415 16448 16320 16350 16398 16335 16205 16194 16214 16285 16266 16279 16351 16369 16382 16218 16150 16173 16251 16313 16521 16752 16735 16754 16724 16724 16719 16800
13193 13302 13386 13371 13440 13315 13271 13190 13232 13268 13204 13187 13210 13145 13118 13069 13098 13111 13170 13136 13094 13098 13083 13230 13314 13387 13525 13647 13820 13795 13668 13563 13569 13469 13409 13309 13185 13133 13003 12994 13058 13175 13198 13162 13122 13059 13124 13037 12878 13042 13099 13177 13232 13292 13365 13327 13377 13372 13363 13269 13198 13090 13025 12470 12440 12440 12440 12440 12422 12724 12481 12349 12220 12280 12259 12137 12088 12079 12010 11946 11987 12006 11968 12047 12018 11874 11831 11779 11663 11559 11576 11470 11438 11540 11537 11567 11541 11382 11248 11189 11041 11011 10884 10768 10655 10735 10815 10803 10884 10894 10968 10870 10849 10848 10826 10836 10955 10957 10867 10879 10776 10873 10882 10984 11178 11384 11497 11553 11647 11773 11829 11968 12199 12278 12302 12300 12391 12517 12600 12803 12967 13009 12966 12918 12997 13274 13498 13703 13972 14051 14206 14457 14655 14996 15296 15475 15724 15799 15993 16269 16426 16433 16385 16311 16341 16403 16409 16424 16396 16533 16553 16663 16764 16759 16834 16904 16904 16871 16778 16643 16552 16380 16221 16200 16082 16077 16132 16069 16055 16114 16056 15981 15821 15852 15784 15716 15614 15555 15413 15443 15389 15261 15156 15188 15101 15009 14974 14901 14807 14840 14914 14887 14972 15024 15140 15256 15274 15574 15447 15424 15424 15424 15402 15262 16528 16422 16390 16403 16444 16483 16457 16394 16398 16383 16384 16220 16146 16133 16091 16239 16270 16276 16320 16276 16125 16094 16129 16277 16321 16555 16667 16726 16854 16805 16705 16667 16670
13181 13175 13305 13376 13418 13347 13254 13216 13204 13185 13266 13186 13141 13028 13068 12999 12881 12902 13053 12999 13008 13007 13111 13131 13298 13337 13352 13391 13574 13503 13392 13352 13387 13267 13100 13057 12839 12857 12924 12828 12869 12929 13017 13085 13076 13018 13012 12942 12836 12956 12994 13009 13079 13255 13332 13364 13322 13351 13363 13325 13215 13163 13148 12464 12429 12406 12406 12406 12398 12337 12542 12401 12277 12240 12197 12116 12004 12007 11881 11922 11921 11839 11838 11884 11856 11770 11720 11685 11610 11528 11508 11412 11394 11482 11486 11457 11471 11326 11296 11109 11057 10974 10886 10797 10666 10702 10694 10628 10745 10763 10789 10709 10769 10738 10757 10797 10735 10703 10708 10730 10700 10804 10798 10840 10956 11155 11268 11383 11480 11590 11672 11848 12033 12106 12244 12288 12342 12323 12446 12641 12803 12845 12808 12785 12881 13122 13261 13467 13773 13862 13983 14250 14539 14850 15135 15381 15536 15655 15811 16031 16190 16224 16242 16125 16171 16174 16281 16199 16205 16288 16344 16489 16615 16556 16638 16679 16693 16639 16546 16486 16390 16358 16185 16147 15995 15936 15976 15928 15932 15922 15916 15785 15739 15665 15720 15608 15568 15441 15335 15439 15354 15248 15186 15160 15052 15008 14935 14881 14781 14790 14848 14853 14867 14938 14986 15157 15223 15298 15426 15379 15379 15379 15379 15239 16390 16377 16312 16368 16287 16325 16452 16378 16348 16268 16335 16151 16137 16151 16079 16136 16096 16097 16158 16091 16006 16068 16036 16116 16289 16476 16592 16728 16884 16705 16677 16672 16674
13128 13164 13211 13229 13316 13213 13169 13174 13200 13171 13235 13055 12983 12982 12955 12728 12621 12679 12827 12902 12982 12978 13019 13073 13164 13269 13278 13246 13299 13185 13096 13061 13154 13049 12856 12748 12603 12695 12762 12758 12771 12855 12856 12923 12988 13019 12924 12804 12732 12827 12965 12946 12988 13124 13313 13386 13371 13361 13331 13261 13251 13284 13229 13147 12422 12385 12385 12385 12385 12322 12580 12399 12223 12169 12179 12108 12030 11970 11825 11856 11843 11787 11663 11676 11603 11657 11644 11637 11571 11542 11485 11399 11318 11366 11480 11385 11355 11261 11232 11057 10983 10964 10837 10742 10609 10528 10504 10479 10560 10550 10660 10623 10687 10603 10610 10617 10554 10439 10445 10507 10588 10614 10735 10814 10854 10900 11047 11196 11348 11394 11537 11737 11901 12051 12111 12137 12273 12220 12277 12414 12630 12633 12761 12781 12717 12930 13107 13311 13583 13672 13887 14202 14442 14691 15020 15189 15330 15516 15678 15814 16024 16062 16102 16016 16016 15974 16032 16045 15970 16084 16207 16319 16473 16384 16374 16516 16596 16495 16317 16309 16347 16256 16176 16108 15999 15949 15914 15797 15793 15721 15664 15591 15607 15548 15571 15453 15456 15478 15384 15425 15426 15350 15303 15182 15105 14912 14809 14685 14644 14778 14793 14734 14745 14874 14959 15036 15101 15233 15380 15286 15286 15286 15286 15192 16328 16332 16274 16304 16221 16291 16373 16314 16256 16204 16226 16164 16102 16067 15954 15950 16012 15962 15915 15917 15988 16056 16009 16069 16196 16307 16529 16758 16865 16712 16680 16631 16672
12958 12988 13065 13148 13259 13132 13152 13145 13145 13167 13241 13125 12993 12839 12798 12583 12522 12656 12763 12862 12929 12969 12961 12931 13000 13158 13208 13196 13079 12950 12920 12907 12864 12689 12643 12589 12430 12485 12558 12594 12686 12749 12757 12705 12785 12850 12847 12702 12726 12726 12814 12837 12904 13093 13206 13332 13474 13437 13386 13338 13259 13231 13175 13161 12404 12349 12332 12332 12332 12289 12219 12387 12261 12224 12135 12028 11852 11782 11735 11679 11681 11542 11456 11509 11456 11523 11469 11526 11513 11465 11370 11273 11271 11328 11340 11362 11325 11282 11173 11095 11026 10935 10773 10659 10496 10489 10434 10422 10330 10350 10461 10533 10460 10494 10485 10494 10477 10421 10397 10372 10398 10525 10618 10674 10716 10834 10900 10968 11109 11217 11379 11586 11721 11797 11978 12114 12193 12183 12179 12343 12459 12524 12633 12610 12636 12859 13108 13227 13429 13599 13867 14121 14437 14663 14969 15122 15223 15331 15508 15745 15838 15806 15901 15803 15787 15866 15857 15800 15861 16013 16036 16132 16224 16267 16143 16273 16380 16235 16129 16235 16224 16177 16032 16074 15994 15864 15873 15701 15644 15640 15621 15554 15620 15497 15524 15457 15483 15454 15272 15356 15360 15324 15190 15120 15061 14858 14796 14682 14560 14664 14613 14632 14645 14781 14838 14974 15022 15167 15332 15215 15215 15215 15215 15168 16237 16199 16134 16163 16202 16222 16259 16184 16177 16109 16139 16095 16047 16052 16005 15950 15953 15903 15798 15947 15956 15928 15967 16164 16231 16345 16429 16569 16807 16763 16818 16800 16815
12811 12921 12929 13017 13194 13088 13028 13054 13097 13080 13121 13043 12957 12827 12679 12491 12324 12468 12635 12658 12769 12854 12872 12853 12917 13041 13040 13040 12966 12836 12704 12626 12512 12412 12392 12285 12253 12337 12422 12465 12506 12529 12585 12573 12647 12667 12710 12654 12697 12671 12693 12835 12857 12959 13177 13290 13514 13441 13435 13388 13295 13251 13146 13191 12382 12322 12287 12287 12287 12272 12202 12329 12283 12188 12032 11879 11776 11640 11562 11630 11586 11468 11308 11252 11284 11309 11410 11407 11473 11363 11260 11310 11241 11234 11288 11172 11185 11149 11027 10953 10963 10824 10628 10532 10360 10356 10340 10248 10160 10221 10244 10354 10359 10262 10239 10271 10326 10252 10242 10328 10304 10392 10526 10538 10589 10648 10662 10797 10902 11046 11144 11315 11426 11625 11925 12081 12173 12084 12101 12131 12210 12259 12416 12572 12667 12803 13044 13198 13283 13570 13748 14088 14387 14555 14850 15024 15156 15270 15383 15595 15758 15661 15634 15555 15569 15609 15688 15682 15750 15890 15908 16009 16033 16081 16032 16148 16235 16101 16030 16078 16079 16060 15981 15948 16017 15839 15777 15601 15530 15576 15526 15564 15518 15486 15583 15558 15510 15407 15273 15316 15271 15226 15157 15048 14941 14896 14817 14616 14456 14461 14428 14439 14534 14647 14705 14865 15047 15127 15146 15145 15145 15145 15145 15145 16236 16224 16092 16040 16095 16207 16194 16157 16108 16107 16038 16096 16058 16073 16003 15922 15781 15802 15802 15886 15865 15903 15922 16138 16232 16338 16457 16517 16655 16717 16869 16927 16868
12750 12810 12909 12952 13026 12959 12949 12933 12925 12945 12981 12849 12799 12694 12565 12442 12199 12374 12458 12607 12691 12764 12677 12709 12682 12784 12767 12756 12742 12668 12489 12443 12419 12359 12224 12230 12199 12277 12404 12475 12573 12623 12602 12553 12636 12641 12596 12643 12571 12646 12590 12690 12783 12984 13123 13309 13507 13516 13434 13416 13313 13270 13336 13247 13260 12307 12234 12234 12234 12234 12161 12375 12226 12212 12016 11845 11785 11656 11562 11543 11531 11461 11408 11244 11235 11288 11390 11386 11546 11403 11321 11245 11152 11154 11142 11002 10925 10937 10877 10793 10795 10662 10632 10542 10266 10254 10238 10253 10150 10196 10256 10356 10312 10275 10296 10255 10337 10298 10286 10291 10336 10467 10623 10590 10536 10601 10643 10733 10847 11036 11092 11259 11474 11724 11951 12026 12176 12180 12258 12222 12319 12327 12427 12531 12637 12952 13183 13288 13361 13607 13766 14096 14311 14506 14737 14984 15128 15169 15383 15626 15774 15640 15597 15575 15580 15546 15628 15648 15760 15839 15964 15945 15989 16065 16037 16150 16242 16182 16071 16137 16137 16097 15966 15906 15894 15804 15721 15583 15436 15519 15526 15424 15373 15398 15489 15477 15415 15305 15281 15215 15221 15204 15126 15014 14951 14857 14754 14637 14464 14473 14553 14468 14582 14638 14705 14795 14959 15060 14954 15074 15074 15074 15074 15121 16194 16193 16107 16132 16068 16042 16114 16078 16021 15936 15996 16066 16010 15983 15924 15735 15699 15780 15751 15752 15859 15791 15850 15966 16210 16228 16425 16404 16410 16517 16602 16741 16775
12689 12779 12777 12807 12887 12898 12789 12743 12810 12835 12835 12765 12698 12594 12449 12304 12132 12157 12269 12377 12567 12634 12606 12478 12414 12485 12605 12522 12496 12394 12294 12304 12297 12199 12146 12110 12024 12196 12300 12465 12568 12578 12609 12619 12553 12505 12498 12519 12557 12568 12612 12644 12783 12860 13041 13211 13447 13434 13485 13463 13457 13427 13435 13373 13380 12276 12179 12179 12179 12179 12141 12267 12275 12198 12056 11947 11762 11706 11604 11581 11569 11431 11411 11315 11173 11244 11319 11435 11544 11489 11371 11221 11068 10998 10891 10823 10763 10775 10736 10711 10734 10642 10634 10502 10290 10316 10253 10221 10191 10193 10186 10280 10301 10283 10242 10269 10315 10388 10390 10438 10429 10527 10606 10583 10568 10701 10744 10855 10881 11026 11129 11227 11396 11697 11910 12002 12109 12144 12306 12405 12412 12444 12440 12619 12695 13041 13297 13400 13546 13641 13815 14022 14287 14521 14691 14829 14982 15073 15275 15514 15693 15669 15577 15554 15613 15563 15627 15733 15717 15807 15985 16055 16040 16072 16008 16130 16260 16296 16225 16151 16190 16151 16069 16019 15879 15760 15571 15460 15392 15479 15448 15339 15327 15389 15392 15321 15337 15308 15287 15186 15137 15034 14977 15016 15038 14804 14645 14473 14396 14500 14596 14547 14617 14638 14763 14826 14956 14828 14903 15001 15001 15001 15025 15098 16150 16068 16103 16071 16027 16037 16010 15949 15840 15811 15846 15924 15992 15856 15743 15654 15658 15741 15751 15714 15786 15782 15745 15872 16096 16181 16319 16356 16267 16368 16460 16596 16765
12754 12802 12689 12696 12686 12674 12739 12586 12601 12605 12568 12563 12561 12454 12382 12187 12116 12180 12163 12219 12409 12385 12341 12244 12268 12255 12312 12291 12284 12201 12181 12177 12060 12041 11970 11884 11916 12023 12211 12384 12477 12573 12536 12541 12570 12608 12570 12484 12523 12546 12621 12683 12755 12793 12951 13085 13323 13386 13366 13474 13517 13508 13423 13391 13408 12260 12143 12127 12127 12127 12108 12014 12148 12200 12076 11944 11828 11757 11695 11611 11545 11476 11422 11383 11219 11242 11397 11486 11494 11421 11368 11176 11096 10990 10794 10686 10680 10661 10707 10707 10701 10651 10642 10560 10403 10368 10326 10306 10345 10373 10313 10276 10320 10308 10234 10362 10354 10325 10343 10382 10355 10550 10631 10656 10671 10690 10820 10732 10781 10910 11111 11266 11414 11613 11845 12021 12120 12155 12340 12310 12400 12530 12560 12744 12825 13131 13357 13515 13694 13806 13908 14189 14376 14493 14730 14775 14918 15051 15354 15596 15734 15697 15672 15643 15669 15623 15685 15675 15734 15765 15967 15942 15919 16022 16060 16158 16263 16303 16139 16146 16086 16095 16068 15952 15795 15678 15558 15493 15315 15387 15342 15247 15308 15273 15269 15189 15219 15215 15201 15190 15167 15079 14995 14959 14902 14871 14695 14523 14400 14548 14615 14603 14705 14727 14782 14855 14950 14776 14852 14902 14902 14902 14977 15051 16036 16093 16037 16069 16041 15954 15828 15874 15808 15833 15749 15839 15916 15812 15635 15636 15510 15583 15608 15621 15638 15653 15665 15858 15998 16143 16136 16112 16141 16294 16437 16533 16739
12716 12746 12683 12563 12518 12500 12581 12467 12429 12428 12427 12522 12543 12436 12229 12123 12042 12039 12145 12180 12172 12160 12149 12054 12066 12114 12064 12045 12011 12054 12033 11970 11889 11832 11717 11702 11734 11912 12205 12335 12457 12479 12477 12564 12642 12683 12637 12531 12463 12504 12624 12648 12630 12778 12888 13064 13135 13265 13304 13376 13481 13483 13417 13457 13372 13062 12104 12075 12075 12075 12075 12003 12149 12144 12151 12003 11915 11918 11811 11753 11569 11546 11432 11330 11315 11360 11509 11507 11524 11498 11371 11174 11000 10888 10738 10583 10525 10519 10583 10682 10738 10687 10639 10509 10448 10349 10352 10360 10431 10480 10427 10441 10383 10358 10300 10362 10313 10290 10220 10294 10324 10512 10659 10698 10746 10819 10794 10668 10643 10876 11066 11197 11353 11584 11768 11987 12159 12183 12306 12321 12379 12478 12653 12816 12961 13148 13414 13584 13725 13867 14026 14217 14362 14501 14670 14704 14809 15100 15380 15601 15735 15813 15778 15754 15710 15744 15733 15695 15631 15721 15849 15850 15906 16010 16057 16164 16300 16278 16166 16116 16109 16074 16081 15909 15824 15677 15506 15458 15313 15190 15157 15219 15176 15105 15065 15130 15072 15154 15124 15135 15122 14974 14914 14863 14882 14874 14789 14645 14480 14511 14637 14803 14918 14929 14866 14916 14958 14747 14825 14850 14850 14850 14953 15027 15949 16053 16069 15968 15946 15857 15765 15782 15764 15761 15742 15779 15869 15788 15649 15501 15478 15470 15369 15475 15510 15562 15667 15863 15998 16025 16062 16044 16099 16177 16379 16557 16782
12683 12606 12617 12489 12567 12501 12505 12416 12311 12317 12258 12431 12524 12287 12093 12121 12051 11999 11895 11959 11935 11935 11928 11852 11849 11811 11843 11839 11858 11833 11731 11666 11650 11653 11550 11528 11614 11811 12015 12164 12319 12344 12321 12434 12594 12517 12460 12407 12401 12551 12586 12669 12689 12831 12921 13006 13037 13168 13368 13378 13495 13391 13339 13351 13254 13128 12084 12031 12031 12031 12031 11979 12130 12037 11979 11949 11849 11844 11793 11689 11494 11488 11428 11432 11335 11306 11338 11337 11391 11250 11123 10987 10868 10851 10700 10525 10537 10545 10554 10663 10719 10704 10600 10653 10632 10572 10421 10425 10476 10542 10480 10469 10464 10453 10379 10376 10351 10288 10274 10357 10368 10425 10508 10631 10696 10715 10684 10629 10620 10782 11058 11188 11245 11440 11638 11799 12074 12131 12290 12309 12448 12556 12740 12877 12956 13130 13434 13538 13708 13768 13910 14124 14337 14482 14686 14770 14766 15064 15252 15418 15644 15691 15745 15703 15561 15562 15648 15676 15707 15795 15867 15859 15948 16104 16068 16143 16260 16248 16140 16027 16050 16084 16040 15865 15680 15517 15395 15312 15211 15222 15192 15227 15098 15065 14991 15035 14966 15019 14993 14925 14929 14936 14855 14822 14839 14764 14693 14560 14436 14451 14544 14722 14862 14807 14889 14902 14581 14692 14744 14744 14744 14799 14903 15624 15797 15821 15919 15877 15802 15769 15759 15722 15633 15629 15549 15692 15789 15687 15577 15560 15505 15469 15295 15425 15538 15571 15723 15864 16032 16016 16128 16060 16089 16221 16402 16519 16747
12673 12626 12543 12463 12499 12488 12435 12262 12129 12164 12213 12341 12407 12174 12064 12019 12004 11903 11740 11766 11725 11697 11728 11749 11745 11693 11617 11655 11625 11640 11543 11423 11349 11343 11452 11468 11424 11655 11761 11914 12073 12183 12239 12342 12445 12340 12302 12302 12424 12488 12588 12677 12720 12733 12834 12973 13065 13188 13311 13393 13479 13407 13287 13253 13259 13150 12047 11990 11990 11990 11990 11967 12023 11892 11818 11779 11759 11759 11727 11558 11442 11525 11509 11434 11360 11338 11268 11302 11349 11232 10992 10922 10841 10699 10666 10504 10434 10518 10551 10607 10607 10620 10527 10628 10737 10635 10543 10555 10561 10632 10577 10629 10594 10548 10387 10401 10383 10352 10303 10337 10318 10356 10437 10567 10748 10668 10604 10600 10632 10772 11017 11147 11221 11299 11405 11670 11881 12016 12159 12332 12434 12574 12759 12829 12999 13159 13408 13538 13574 13674 13857 14082 14219 14453 14655 14769 14827 14977 15113 15363 15546 15593 15632 15628 15529 15536 15550 15645 15752 15818 15929 15944 16059 16142 16110 16080 16156 16125 16024 15985 16013 16018 15962 15811 15592 15408 15292 15251 15156 15189 15193 15152 15076 15079 15020 15038 14950 14976 14985 14882 14839 14801 14829 14846 14745 14602 14586 14449 14405 14543 14575 14677 14773 14728 14787 14457 14531 14639 14666 14666 14692 14773 14878 15580 15742 15766 15785 15609 15544 15536 15639 15513 15503 15405 15396 15472 15602 15578 15465 15561 15548 15451 15348 15517 15591 15656 15674 15830 15977 16048 16108 16052 16100 16248 16398 16540 16809
12492 12557 12471 12388 12504 12375 12325 12207 12114 12112 12142 12158 12193 12074 12028 11872 11832 11710 11713 11640 11569 11605 11649 11627 11617 11567 11519 11498 11357 11371 11244 11113 11032 11070 11149 11217 11283 11482 11636 11803 12046 12045 12052 12170 12299 12282 12158 12152 12296 12485 12559 12748 12786 12790 12917 12985 13137 13205 13217 13395 13440 13358 13378 13223 13168 13051 12035 11967 11957 11957 11957 11946 11883 11888 11823 11807 11748 11628 11637 11506 11425 11523 11542 11459 11362 11258 11283 11217 11225 11082 10894 10919 10824 10602 10510 10462 10276 10465 10547 10497 10562 10578 10565 10677 10820 10800 10666 10696 10796 10725 10587 10597 10625 10481 10468 10437 10311 10317 10240 10263 10273 10273 10446 10544 10733 10688 10671 10610 10613 10643 10851 10939 11114 11210 11370 11592 11815 11913 12091 12292 12446 12662 12816 12884 13090 13246 13382 13482 13593 13760 13837 13979 14120 14356 14606 14700 14770 15004 15109 15310 15476 15531 15567 15491 15549 15620 15597 15773 15840 15840 15957 16061 16074 16124 16088 16083 16153 16033 15898 15952 15930 15866 15887 15788 15556 15377 15260 15248 15145 15221 15201 15020 14935 14879 14903 14907 14782 14800 14776 14780 14831 14679 14712 14637 14631 14582 14559 14461 14326 14490 14606 14725 14776 14775 14820 14439 14509 14588 14588 14588 14638 14720 15311 15442 15518 15599 15620 15533 15502 15514 15508 15409 15395 15280 15312 15321 15479 15382 15421 15436 15487 15481 15339 15425 15502 15579 15673 15750 15820 15980 16018 15990 16026 16162 16339 16492 16638
12405 12413 12306 12362 12439 12355 12270 12234 12074 12067 11961 11952 12037 12008 11868 11781 11713 11612 11563 11575 11486 11582 11589 11514 11529 11437 11435 11295 11174 11070 10870 10882 10781 10782 10881 11007 11221 11358 11466 11706 11932 11958 11964 12012 12184 12091 12093 12107 12242 12451 12611 12765 12802 12830 12975 13032 13165 13173 13200 13308 13325 13405 13375 13227 13178 12914 12709 11944 11912 11912 11912 11912 11858 11807 11745 11727 11787 11620 11482 11486 11426 11493 11455 11302 11252 11153 11182 11130 11183 11022 10861 10800 10744 10525 10419 10335 10225 10387 10460 10491 10455 10572 10628 10730 10796 10845 10875 10890 10929 10802 10615 10607 10558 10487 10530 10435 10265 10281 10187 10188 10120 10241 10486 10604 10607 10661 10714 10673 10592 10591 10690 10742 10923 11040 11215 11443 11637 11833 12127 12246 12423 12603 12801 12997 13081 13146 13256 13461 13650 13729 13726 13909 14005 14235 14471 14556 14727 15000 15152 15333 15499 15495 15460 15478 15566 15639 15700 15812 15977 15933 15966 16071 16182 16209 16133 16125 16033 15975 15885 15859 15729 15653 15697 15649 15484 15369 15292 15335 15255 15188 15140 14988 14826 14795 14726 14751 14715 14632 14608 14706 14726 14616 14618 14576 14487 14444 14437 14421 14375 14464 14607 14702 14706 14702 14368 14410 14472 14496 14496 14514 14582 14662 15232 15288 15410 15426 15448 15462 15363 15268 15266 15287 15322 15206 15202 15261 15286 15222 15252 15303 15460 15401 15374 15422 15455 15551 15657 15749 15766 15815 15841 15880 15959 16185 16297 16439 16587
12338 12237 12177 12276 12265 12197 12169 12026 11927 11831 11848 11764 11858 11741 11638 11586 11532 11427 11420 11390 11402 11508 11518 11536 11548 11448 11388 11336 11202 11055 10986 10935 10823 10820 10901 11056 11208 11342 11367 11526 11790 11768 11824 11904 11901 11934 11908 11976 11975 12165 12226 12380 12513 12665 12774 12836 13006 13035 13078 13103 13083 13238 13297 13115 13068 12887 12769 11932 11889 11889 11889 11889 11847 11845 11822 11855 11764 11547 11408 11426 11319 11393 11294 11286 11208 11142 11250 11112 11100 11042 10869 10835 10767 10567 10476 10415 10334 10428 10445 10451 10470 10594 10622 10777 10862 10871 10972 10958 11052 10781 10664 10619 10627 10664 10654 10512 10435 10347 10246 10228 10222 10296 10442 10661 10760 10757 10692 10647 10726 10726 10873 10956 11050 11193 11331 11513 11837 11908 12153 12254 12504 12584 12802 12880 13019 13169 13205 13379 13543 13578 13634 13881 14112 14318 14394 14571 14706 14906 14985 15228 15455 15476 15467 15461 15528 15668 15774 15831 15942 15998 16020 16088 16188 16075 15991 16041 15965 15868 15792 15820 15658 15656 15594 15478 15403 15263 15253 15230 15298 15178 15070 14907 14692 14638 14594 14584 14553 14569 14686 14772 14821 14655 14625 14503 14376 14442 14427 14372 14367 14504 14596 14643 14580 14578 14352 14395 14455 14455 14455 14489 14555 14960 15063 15056 15178 15249 15223 15257 15214 15268 15266 15210 15194 15188 15212 15169 15225 15188 15249 15321 15452 15430 15428 15516 15519 15582 15569 15661 15738 15744 15886 15876 15863 16145 16286 16422 16584
12182 12017 11975 12053 12143 12054 12048 11900 11832 11709 11712 11655 11618 11509 11508 11402 11355 11326 11343 11261 11306 11327 11408 11524 11563 11478 11308 11283 11292 11123 10976 10898 10832 10806 10909 11090 11186 11228 11227 11375 11627 11641 11666 11661 11730 11761 11823 11804 11761 11811 11963 12117 12208 12395 12519 12673 12806 12792 12870 12928 12960 13038 13104 13093 13054 12859 12781 11911 11868 11846 11846 11846 11824 11778 11979 11879 11818 11555 11407 11395 11315 11263 11262 11162 11151 11152 11248 11205 11146 11059 10884 10886 10915 10730 10489 10371 10349 10433 10490 10444 10479 10571 10622 10753 10893 10878 10965 11022 11083 10864 10751 10772 10702 10650 10712 10594 10493 10381 10231 10306 10281 10339 10456 10605 10817 10743 10724 10700 10771 10930 11022 11114 11172 11329 11415 11648 11965 12052 12133 12339 12515 12643 12899 12940 13040 13109 13178 13339 13498 13555 13658 13909 14141 14295 14391 14545 14585 14745 14903 15185 15412 15401 15430 15475 15490 15646 15823 15884 15917 16023 16058 16156 16200 16116 15937 15844 15826 15811 15793 15805 15715 15609 15506 15459 15348 15216 15182 15219 15236 15132 15025 14781 14533 14524 14500 14528 14495 14650 14825 14913 14905 14748 14641 14522 14338 14452 14490 14415 14463 14506 14624 14534 14512 14593 14319 14364 14381 14381 14381 14444 14504 14894 14915 14936 14972 14921 14935 15041 15174 15174 15181 15098 15114 15230 15224 15135 15165 15202 15327 15384 15465 15525 15486 15579 15586 15502 15495 15628 15659 15698 15855 15884 15883 16076 16210 16366 16509
11939 11860 11855 11839 11906 11909 11874 11862 11734 11672 11606 11529 11587 11506 11427 11313 11208 11270 11326 11246 11282 11434 11465 11435 11423 11309 11212 11309 11268 11129 11102 10999 10936 10899 10963 11028 11089 11149 11088 11275 11420 11423 11447 11522 11591 11536 11623 11581 11651 11745 11803 11955 11976 12164 12393 12515 12624 12668 12620 12709 12798 12887 12954 13081 13118 13003 12898 11899 11857 11835 11813 11813 11802 11758 11737 12016 11828 11663 11385 11391 11261 11261 11218 11147 11202 11200 11280 11204 11096 11101 10979 10978 10907 10757 10539 10390 10296 10343 10427 10386 10381 10529 10589 10761 11020 10996 11001 10956 10999 10896 10916 10765 10699 10755 10719 10670 10566 10458 10280 10279 10300 10385 10444 10557 10763 10764 10747 10812 10851 10961 10997 11183 11257 11410 11596 11822 12011 12075 12242 12436 12601 12796 12961 12967 13091 13065 13175 13283 13428 13576 13708 13872 14076 14200 14284 14467 14600 14759 14847 15144 15391 15425 15509 15552 15504 15697 15844 15852 15778 15866 15873 16037 16091 16014 15870 15884 15816 15770 15729 15717 15628 15539 15419 15388 15255 15256 15208 15213 15151 15067 14912 14669 14460 14531 14521 14526 14501 14646 14862 14854 14901 14752 14642 14470 14365 14426 14490 14504 14449 14501 14564 14510 14436 14211 14283 14314 14314 14314 14348 14407 14778 14781 14764 14811 14752 14738 14727 14783 14954 15064 14996 14991 15053 15176 15196 15259 15224 15244 15172 15266 15358 15394 15491 15499 15617 15527 15460 15486 15542 15618 15729 15729 15770 15987 16078 16254 16478
11716 11710 11777 11696 11703 11747 11741 11731 11724 11674 11542 11443 11435 11399 11332 11269 11176 11185 11265 11307 11353 11450 11468 11394 11345 11287 11222 11289 11353 11252 11163 11062 10986 10901 10936 11010 11079 11016 11029 11080 11187 11291 11349 11322 11397 11393 11369 11435 11515 11668 11712 11824 11824 11967 12222 12335 12529 12513 12460 12508 12628 12800 12892 12988 13089 13039 13053 12973 11834 11812 11779 11766 11766 11731 11708 11662 11963 11707 11473 11307 11163 11145 11129 11144 11184 11263 11216 11095 11036 11077 11029 11031 10978 10813 10553 10493 10313 10270 10297 10286 10402 10530 10679 10925 11073 10980 10993 11056 11021 10983 11019 10857 10818 10723 10692 10639 10693 10502 10377 10316 10313 10380 10553 10629 10786 10840 10779 10820 10869 10970 11059 11259 11378 11522 11745 11912 12170 12232 12400 12553 12709 12917 13017 13116 13090 13098 13143 13266 13448 13567 13754 13972 14126 14172 14306 14471 14553 14698 14820 15043 15322 15454 15534 15591 15633 15714 15755 15765 15753 15685 15737 15820 15978 15952 15815 15831 15864 15728 15620 15641 15562 15496 15456 15380 15200 15168 15149 15118 15050 14895 14797 14606 14449 14485 14419 14458 14505 14644 14798 14786 14850 14745 14718 14558 14428 14511 14557 14520 14455 14531 14529 14435 14436 14188 14263 14279 14279 14279 14334 14393 14746 14704 14573 14562 14648 14575 14613 14660 14812 14899 14867 14940 15087 15149 15275 15261 15289 15165 15142 15142 15223 15374 15527 15535 15577 15484 15435 15485 15504 15586 15697 15694 15720 15879 16033 16164 16405
11732 11718 11741 11653 11562 11593 11560 11636 11585 11420 11318 11297 11391 11354 11209 11108 11021 11115 11219 11200 11262 11326 11395 11363 11259 11206 11227 11251 11313 11285 11196 11104 11003 11003 10948 11082 11138 11029 11064 11018 10960 11105 11189 11185 11172 11151 11180 11281 11252 11411 11543 11728 11805 11959 12062 12207 12319 12350 12412 12513 12623 12705 12824 12892 12962 12970 13115 13053 11813 11790 11756 11728 11728 11716 11691 11644 11990 11779 11489 11380 11225 11107 11122 11240 11276 11208 11175 11055 10976 10993 10939 10915 10934 10863 10697 10501 10435 10467 10458 10447 10395 10546 10711 10849 10961 11020 11007 11048 11025 10963 10907 10934 10915 10846 10783 10758 10825 10620 10583 10543 10484 10528 10620 10682 10817 10826 10761 10829 10822 10926 10995 11269 11517 11711 11919 12002 12300 12359 12412 12516 12727 12905 12972 13098 13185 13212 13366 13422 13583 13639 13873 14064 14182 14190 14290 14381 14498 14594 14702 14904 15064 15307 15442 15417 15542 15564 15580 15617 15542 15552 15673 15773 15903 15835 15710 15860 15857 15824 15623 15603 15590 15410 15337 15167 15040 15050 15031 15028 14939 14778 14664 14476 14308 14347 14385 14349 14441 14566 14643 14665 14733 14706 14657 14522 14505 14560 14560 14427 14313 14377 14448 14438 14070 14141 14202 14202 14202 14246 14303 14640 14605 14575 14587 14589 14465 14477 14594 14730 14826 14857 14799 14897 15021 15130 15116 15091 15072 14985 15022 15162 15196 15183 15278 15313 15423 15437 15374 15466 15521 15546 15713 15736 15751 15892 16037 16207 16304
11652 11604 11591 11577 11485 11537 11465 11474 11438 11323 11175 11260 11242 11168 10970 10928 10874 11013 11191 11147 11228 11322 11298 11224 11204 11211 11162 11188 11308 11311 11233 11137 11059 10984 10909 11025 11085 11059 10997 10875 10844 10871 10955 11029 11067 11038 11104 11054 11062 11263 11463 11590 11683 11793 12006 12080 12188 12334 12363 12432 12524 12692 12871 12970 12964 13017 13082 12979 13004 11778 11745 11716 11685 11685 11658 11609 11575 11681 11541 11300 11168 11114 11071 11208 11244 11248 11160 11018 10869 10929 10960 10980 11000 10929 10798 10609 10522 10570 10603 10501 10516 10652 10738 10794 10961 11022 11069 11034 10907 10883 10866 10952 10971 10922 10983 10968 10875 10796 10708 10711 10647 10773 10814 10849 10887 10897 10809 10791 10728 10873 10960 11220 11530 11725 11973 12124 12331 12436 12532 12599 12664 12797 12906 13027 13193 13391 13498 13573 13710 13782 13965 14134 14189 14228 14342 14508 14564 14657 14646 14824 14924 15016 15224 15336 15329 15293 15385 15359 15391 15472 15644 15724 15796 15752 15732 15865 15927 15848 15648 15614 15567 15387 15258 15062 14985 14938 14859 14804 14861 14647 14457 14335 14261 14283 14251 14340 14385 14435 14487 14533 14692 14633 14623 14560 14560 14482 14506 14347 14278 14407 14429 14360 14022 14093 14136 14136 14136 14228 14287 14586 14574 14626 14636 14534 14385 14404 14499 14703 14923 14906 14833 14879 14915 15007 15045 15019 14908 14920 14999 15041 15075 15090 15130 15183 15264 15257 15340 15453 15487 15509 15646 15807 15851 15896 16020 16083 16203
11479 11406 11435 11290 11236 11336 11291 11297 11242 11226 11099 11115 11177 11080 11010 10877 10898 10953 11030 11092 11246 11252 11252 11265 11174 11262 11243 11278 11260 11157 11098 11113 11021 10982 10867 10914 11003 10880 10832 10807 10756 10839 10907 10935 10909 10948 11040 10927 10957 11117 11313 11379 11503 11715 11832 12010 12085 12206 12359 12395 12410 12567 12815 13006 13044 12990 13038 13010 12950 12788 11723 11691 11641 11622 11622 11571 11535 11469 11508 11288 11125 11184 11181 11137 11181 11177 11130 11029 10958 10974 11011 11024 10995 10921 10807 10748 10652 10673 10765 10693 10666 10749 10781 10809 10938 11042 11090 10999 10891 10870 10888 11002 10936 10961 10990 10856 10864 10856 10760 10836 10811 10752 10849 10829 10823 10734 10737 10671 10677 10879 10967 11301 11565 11740 11952 12136 12290 12403 12522 12593 12735 12918 13026 13108 13270 13442 13523 13643 13782 13948 14035 14197 14315 14302 14471 14503 14619 14594 14573 14787 14902 14925 15027 15155 15082 15150 15256 15219 15292 15395 15401 15559 15656 15677 15660 15790 15980 15769 15621 15581 15449 15370 15288 15027 14948 14804 14754 14728 14633 14600 14425 14400 14302 14305 14207 14249 14323 14363 14440 14503 14575 14499 14586 14480 14548 14464 14481 14380 14314 14314 14403 13899 13997 14069 14069 14069 14093 14188 14603 14583 14560 14533 14548 14499 14399 14420 14497 14733 14917 14824 14824 14826 14931 14902 14946 14814 14708 14748 14807 14827 14864 14916 15003 15124 15237 15322 15360 15378 15509 15553 15644 15765 15876 15910 16074 16091 16282
11419 11236 11163 11084 11068 11106 11131 11185 11120 11014 10927 10963 10988 10995 10925 10882 10808 10888 10969 11047 11175 11258 11243 11211 11129 11236 11264 11265 11159 11041 11014 11098 11086 10961 10949 10879 10930 10794 10757 10676 10697 10753 10836 10726 10735 10758 10854 10834 10864 11012 11155 11298 11414 11564 11773 11994 12099 12145 12229 12287 12381 12572 12743 12974 13080 12979 12982 12962 13001 12883 11695 11661 11609 11542 11542 11523 11483 11410 11382 11275 11061 11165 11186 11144 11185 11127 11026 10965 10937 11011 11092 11044 10994 10992 10926 10905 10850 10839 10827 10761 10699 10792 10781 10885 10969 11040 10990 11006 10957 10978 10968 10996 10950 10953 10890 10815 10866 10799 10840 10852 10982 10833 10808 10794 10800 10733 10776 10701 10684 10873 11030 11223 11502 11643 11889 12058 12262 12291 12435 12658 12779 12906 13116 13149 13246 13435 13526 13628 13739 13953 14151 14199 14316 14408 14564 14613 14591 14649 14625 14711 14780 14843 14918 14953 14928 15031 15025 15143 15258 15201 15224 15356 15438 15514 15709 15869 15968 15797 15693 15487 15367 15278 15210 14990 14817 14728 14700 14561 14531 14490 14406 14366 14325 14243 14230 14232 14296 14405 14483 14555 14505 14417 14437 14420 14450 14407 14411 14409 14327 14349 14296 13847 13947 13972 13972 13972 14046 14144 14658 14643 14531 14496 14507 14381 14289 14337 14456 14649 14817 14805 14728 14797 14867 14852 14777 14666 14616 14586 14541 14663 14676 14777 14961 15031 15159 15256 15338 15437 15633 15623 15698 15816 15958 16050 16094 16170 16255
11144 11082 11039 10961 10911 10946 11049 10977 10995 10901 10807 10828 10939 10925 10806 10730 10708 10785 10756 10854 10899 10953 11014 10956 10855 10970 10994 11100 11054 10943 10919 11049 11010 10958 10837 10864 10836 10852 10766 10805 10802 10779 10806 10786 10664 10682 10810 10749 10823 10856 11034 11178 11373 11565 11676 11883 11948 12075 12103 12150 12296 12443 12576 12740 12896 12866 12921 12834 12868 12656 12560 11625 11574 11504 11451 11451 11429 11352 11267 11270 11065 11181 11143 11131 11247 11169 11104 11027 10907 11068 11108 11061 11050 10918 10876 10793 10770 10796 10789 10793 10702 10777 10918 11062 11080 11090 11046 11057 11156 11065 11112 11036 11000 11062 10981 11062 11036 11038 11105 11122 11132 11024 10892 10980 11024 10907 10924 10819 10748 10917 11186 11372 11616 11795 11957 12127 12391 12490 12533 12687 12829 12983 13194 13266 13363 13547 13591 13755 13736 13998 14167 14286 14317 14430 14523 14604 14661 14680 14659 14848 14891 14889 14901 14994 14908 15047 15100 15282 15377 15320 15275 15399 15568 15607 15785 15871 15898 15783 15667 15493 15272 15198 15108 14952 14845 14807 14752 14574 14456 14535 14452 14364 14265 14242 14283 14313 14270 14379 14465 14436 14459 14326 14259 14364 14466 14417 14385 14269 14122 14241 13725 13798 13898 13898 13898 13947 14022 14614 14561 14447 14309 14280 14300 14217 14076 14092 14193 14464 14636 14683 14655 14747 14766 14650 14597 14561 14497 14455 14386 14500 14488 14572 14804 14912 15000 15047 15261 15291 15387 15395 15501 15649 15786 15875 15904 16008 16068
