19999 20056 20194 20106 20088 20095 20062 20035 20035 20087 20157 20157 20158 20060 19976 19949 19889 19872 19903 19728 19603 19687 19802 19694 19666 19607 19623 19573 19397 19243 19156 19012 18806 18654 18450 18219 18085 17942 17708 17602 17482 17325 17206 17077 16990 16802 16715 16588 16485 16480 16351 16286 16337 15587 15581 15580 15580 15524 15471 15391 15256 15253 15242 15235 15235 15242 15047 15075 15154 15201 15157 15273 15318 15243 15229 15102 14923 14904 14952 14885 14843 14975 15220 15294 15438 15463 15494 15546 15564 15544 15558 15605 15726 15874 15986 16024 16160 16048 15922 15871 15802 15737 15636 15519 15287 15290 15374 15364 15380 15356 15281 15212 15246 15286 15443 15600 15645 15701 15708 15718 15813 15933 15991 15889 15863 15907 15978 16062 16082 15978 15840 15731 15530 15466 15407 15303 14499 14464 14444 14403 14382 14322 14261 14201 14119 14077 13992 13926 13860 13816 13795 13751 13712 13170 13154 13033 12924 12778 12553 12453 12341 12417 12513 12603 12609 12701 12672 12610 12427 12336 12254 12207 12147 12226 12213 12101 12082 12127 12054 12094 12051 11957 11912 12024 12063 12039 11966 11972 11893 11961 11959 11841 11790 11762 11640 11065 11130 11165 11165 11165 11199 11271 10923 10879 10739 10623 10419 10309 10286 10310 10244 10211 10122 10116 10153 10299 10384 10445 10442 10363 10339 10441 10431 10532 10615 10524 10512 10423 10444 10379 10239 10256 10323 10229 10184 10261 10214 10144 9948 9830 9836 9900 10042 10194 10252 10118 10084 10018 9988 9906 9921 10007 9982 9892 9813 9762 9739
19887 20035 20099 20033 19927 19864 19912 20023 19994 20071 20070 20005 20074 19961 19958 20016 19950 19797 19726 19625 19605 19626 19677 19581 19514 19442 19488 19376 19394 19229 19046 18846 18711 18529 18333 18134 17887 17745 17626 17541 17342 17325 17259 17099 17043 16823 16816 16621 16499 16447 16244 16238 16255 15592 15586 15583 15537 15497 15429 15345 15275 15256 15242 15232 15227 15120 15064 15138 15145 15232 15213 15207 15149 15102 15148 14971 14856 14941 14884 14876 14761 15000 15135 15298 15457 15529 15545 15576 15576 15532 15598 15588 15656 15747 15831 15946 15957 15913 15909 15776 15757 15743 15621 15497 15290 15299 15380 15374 15407 15388 15302 15352 15348 15362 15468 15576 15698 15669 15711 15746 15807 15922 15967 15832 15809 15921 15972 16094 16166 16053 15866 15779 15689 15491 15407 15399 15335 15155 15039 15107 14257 14221 14201 14162 14119 14077 13992 13926 13840 13778 13741 13701 13667 13640 13624 13068 13061 12946 12733 12599 12426 12480 12497 12695 12754 12750 12811 12709 12590 12477 12421 12447 12386 12367 12270 12246 12333 12228 12175 12183 12110 12105 12086 12216 12209 12141 12033 12027 12055 12110 12045 11953 11981 11832 11661 11588 11163 11217 11236 11236 11236 11308 11365 11006 10884 10713 10598 10404 10270 10349 10387 10351 10372 10329 10350 10464 10432 10485 10568 10483 10493 10548 10512 10595 10768 10740 10644 10568 10597 10536 10449 10459 10436 10348 10378 10362 10345 10328 10223 10126 9987 10121 10201 10203 10332 10281 10127 10174 10118 10089 10053 10140 10230 10118 10001 9973 9828
19865 19903 19895 19785 19728 19714 19799 19902 19915 19906 19994 19960 20052 19978 19971 20006 19964 19850 19676 19582 19570 19514 19555 19445 19451 19399 19259 19270 19269 19197 19040 18810 18606 18473 18243 18014 17794 17665 17560 17428 17315 17245 17248 17159 16987 16857 16832 16629 16487 16330 16254 16187 16115 15593 15587 15550 15517 15486 15412 15335 15287 15266 15249 15237 15125 15104 15093 15090 15085 15144 15154 15124 15047 15095 15078 14995 14905 14940 14885 14846 14779 14925 15061 15294 15409 15463 15549 15581 15537 15503 15598 15661 15648 15698 15706 15720 15844 15904 15846 15763 15774 15697 15507 15406 15274 15274 15323 15360 15348 15350 15430 15395 15343 15383 15403 15582 15691 15687 15693 15708 15846 15877 15887 15896 15867 15952 16055 16161 16142 16015 15990 15878 15723 15660 15530 15451 15472 15405 15298 15232 15233 15118 15026 14063 14016 13992 13949 13904 13840 13778 13725 13672 13639 13612 13597 13569 13166 13018 12939 12693 12547 12567 12593 12690 12822 12830 12872 12809 12672 12675 12591 12581 12499 12444 12432 12471 12460 12340 12288 12180 12158 12281 12382 12383 12390 12359 12226 12224 12289 12266 12176 12137 12128 11964 11785 11691 11180 11234 11273 11295 11295 11353 11417 11468 11045 10880 10770 10617 10370 10433 10416 10411 10502 10499 10599 10637 10606 10683 10700 10682 10620 10608 10686 10793 10896 10838 10877 10849 10800 10809 10694 10599 10577 10597 10491 10465 10513 10502 10379 10270 10086 10214 10269 10315 10486 10403 10275 10312 10242 10320 10289 10340 10435 10279 10225 10081 10023
19787 19764 19719 19703 19649 19641 19647 19775 19831 19916 19993 19995 20054 19991 19862 19896 19998 19871 19764 19601 19437 19416 19392 19341 19307 19266 19154 19184 19128 18933 18800 18653 18364 18334 18142 17953 17720 17733 17628 17485 17304 17283 17149 17015 16815 16706 16572 16500 16376 16273 16162 16110 15595 15594 15578 15539 15512 15469 15393 15343 15304 15281 15262 15211 15108 15146 15077 15047 15054 15193 15189 15154 15016 15082 15111 15087 15015 14934 14873 14869 14805 14903 15056 15113 15229 15336 15434 15414 15413 15475 15508 15534 15521 15523 15582 15549 15653 15654 15641 15637 15666 15516 15466 15356 15267 15217 15300 15383 15298 15296 15476 15365 15353 15442 15568 15675 15656 15696 15810 15819 15974 15992 16006 16000 16013 16077 16062 16272 16329 16208 16146 16045 15965 15833 15729 15704 15653 15525 15507 15425 15362 15315 15161 14948 14820 14583 13861 13816 13775 13758 13725 13657 13609 13566 13551 13522 13492 13478 12991 12837 12698 12786 12773 12969 13068 13020 13001 12947 12960 12870 12752 12731 12551 12533 12587 12621 12575 12471 12387 12269 12259 12301 12448 12525 12527 12463 12436 12338 12375 12405 12434 12596 12577 12544 12526 12509 12279 11873 11593 11476 11382 11403 11471 11524 11578 11034 10855 10705 10494 10490 10555 10597 10578 10587 10687 10711 10706 10814 10868 10769 10807 10781 10861 11032 11051 10949 11020 10993 10900 10822 10809 10687 10706 10621 10572 10559 10664 10670 10540 10451 10225 10411 10481 10470 10599 10568 10504 10454 10478 10534 10474 10551 10614 10522 10407 10272 10220
19606 19559 19641 19582 19583 19596 19494 19546 19720 19815 19927 19916 19988 19858 19825 19926 19914 19860 19742 19578 19361 19299 19301 19260 19277 19154 19004 18936 18882 18821 18688 18521 18251 18105 18075 17943 17757 17687 17596 17433 17313 17226 17097 16921 16747 16580 16417 16332 16202 16134 16102 15589 15593 15583 15565 15534 15506 15457 15392 15366 15325 15299 15246 15211 15103 15076 15153 15125 15151 15134 15241 15214 15088 15229 15248 15175 15105 14944 14847 14814 14819 14912 14929 15024 15173 15261 15233 15361 15397 15431 15503 15385 15343 15406 15353 15424 15520 15530 15542 15483 15460 15431 15305 15294 15223 15186 15249 15330 15294 15317 15413 15399 15446 15522 15656 15689 15614 15748 15837 15864 16019 16114 16096 16159 16156 16196 16168 16324 16396 16325 16360 16214 16145 16044 15923 15905 15871 15715 15665 15601 15516 15378 15277 15089 14896 14654 14521 13770 13732 13717 13687 13657 13609 13551 13504 13461 13411 13397 13372 13357 13352 13053 13079 13149 13257 13264 13174 13165 13180 12996 12930 12850 12650 12605 12631 12668 12591 12490 12425 12349 12257 12374 12616 12671 12840 12838 12825 12817 12796 12776 12752 12696 12664 12598 12563 12510 12438 12173 11924 11786 11631 11476 11524 11577 11631 11230 10982 10803 10723 10618 10598 10688 10681 10726 10855 10859 10756 10851 10999 10924 10918 11047 11065 11205 11234 11126 11138 11082 11006 10957 10835 10756 10758 10774 10775 10762 10815 10797 10768 10561 10346 10553 10652 10738 10770 10818 10756 10736 10616 10655 10672 10728 10683 10547 10463 10499 10410
19446 19484 19451 19486 19496 19488 19431 19437 19534 19709 19762 19789 19877 19758 19762 19809 19783 19783 19685 19518 19301 19299 19252 19186 19160 19030 18883 18783 18698 18571 18492 18335 18239 18084 17937 17866 17657 17549 17521 17460 17353 17174 17023 16810 16601 16427 16302 16152 16090 16058 15997 15588 15582 15572 15559 15533 15503 15478 15418 15392 15350 15253 15226 15130 15120 15095 15226 15199 15268 15243 15264 15159 15065 15227 15249 15265 15159 15109 14963 14877 14850 14987 14995 15091 15135 15208 15239 15293 15233 15306 15377 15344 15216 15271 15291 15366 15381 15450 15496 15420 15342 15305 15287 15362 15305 15288 15282 15296 15321 15491 15519 15459 15516 15591 15739 15690 15639 15800 15846 15891 16108 16129 16176 16203 16282 16339 16346 16469 16533 16506 16484 16490 16439 16308 16191 16186 16090 15991 15974 15872 15668 15546 15465 15260 15069 14874 14716 14502 13677 13666 13639 13610 13595 13551 13504 13461 13411 13390 13360 13347 13342 13339 13339 13338 13340 13345 13330 13290 13273 13128 13059 12897 12745 12773 12679 12620 12580 12491 12548 12482 12354 12797 12806 12812 12821 12824 12824 12822 12801 12776 12752 12696 12664 12598 12563 12510 12438 12281 12061 11934 11791 11697 11678 11602 11654 11724 11145 11048 10849 10849 10779 10759 10741 10734 10889 10854 10820 10911 11101 11138 11131 11219 11278 11362 11384 11398 11304 11279 11157 11106 10973 10917 10935 10862 10946 10997 11026 10947 10943 10785 10605 10713 10721 10747 10856 10862 10862 10792 10725 10712 10787 10768 10767 10722 10663 10616 10547
19331 19325 19314 19362 19310 19319 19372 19370 19469 19578 19608 19766 19821 19773 19816 19817 19758 19741 19655 19503 19325 19239 19240 19230 19128 18932 18725 18632 18456 18333 18327 18258 18142 17889 17749 17690 17594 17582 17466 17439 17286 17040 16823 16665 16452 16300 16162 16089 16051 15952 15592 15584 15578 15569 15557 15531 15516 15481 15445 15421 15339 15267 15156 15097 15112 15128 15269 15332 15287 15287 15223 15221 15148 15270 15280 15272 15230 15150 14970 14992 14917 15008 15079 15051 15054 15070 15171 15145 15109 15114 15181 15155 15116 15192 15161 15162 15232 15260 15384 15339 15351 15352 15299 15348 15326 15379 15312 15310 15430 15555 15558 15556 15642 15781 15796 15750 15760 15806 15864 15980 16199 16229 16356 16294 16320 16483 16535 16609 16772 16774 16653 16588 16647 16567 16500 16385 16255 16249 16166 16015 15908 15788 15605 15482 15281 15074 14925 14647 14315 14282 13598 13567 13552 13521 13490 13461 13411 13390 13360 13347 13342 13339 13339 13338 13336 13335 13334 13328 13325 13377 13177 13059 12915 12855 12710 12614 12608 12599 12634 12788 12786 12789 12796 12801 12812 12819 12824 12822 12801 12776 12752 12696 12664 12598 12563 12510 12438 12400 12220 12061 11918 11835 11802 11766 11746 11762 11798 11172 11020 10999 10862 10863 10777 10829 10885 10994 10990 11112 11287 11270 11354 11344 11420 11463 11523 11544 11538 11436 11426 11290 11226 11182 11015 11002 11086 11135 11162 11124 11082 10980 10842 10845 10854 10907 10989 10956 11014 10932 10829 10862 10809 10881 10977 10971 10880 10735 10648
19265 19211 19132 19168 19149 19250 19316 19403 19390 19534 19523 19584 19690 19685 19657 19651 19565 19528 19470 19393 19236 19291 19296 19223 19127 19004 18824 18592 18436 18333 18205 18148 18057 17871 17821 17645 17535 17414 17331 17286 17274 17012 16812 16637 16580 16402 16255 16082 15952 15848 15590 15584 15579 15570 15560 15547 15530 15487 15472 15451 15260 15179 15106 15022 15037 15120 15168 15198 15291 15275 15203 15125 15090 15168 15129 15122 15135 15131 15009 14935 14982 14951 15016 15066 15020 15110 15236 15166 15101 15121 15101 15112 15220 15234 15217 15294 15348 15285 15317 15256 15259 15260 15360 15428 15452 15377 15402 15429 15372 15566 15629 15646 15661 15723 15676 15740 15759 15805 15859 15982 16061 16172 16189 16262 16383 16515 16560 16709 16792 16771 16657 16673 16693 16617 16488 16374 16266 16227 16130 16060 15985 15806 15631 15467 15290 15196 14933 14684 14373 14324 14136 13535 13520 13490 13458 13445 13411 13390 13360 13347 13342 13339 13339 13338 13334 13328 13315 13299 13285 13271 13263 13242 13230 12888 12850 12760 12598 12837 12828 12814 12809 12805 12798 12801 12812 12819 12824 12822 12801 12776 12752 12696 12664 12598 12563 12510 12438 12400 12320 12184 11997 11914 11879 11837 11818 11861 11852 11346 11285 11196 11200 11112 10945 11062 11087 11087 11120 11195 11321 11391 11472 11489 11532 11598 11549 11591 11515 11530 11488 11327 11240 11192 11051 11027 11074 11138 11143 11036 10996 10865 10790 10760 10819 10755 10799 10854 10863 10915 10782 10907 10891 10930 10984 10953 10827 10773 10704
19093 19042 19007 18975 19029 19129 19242 19361 19426 19422 19405 19427 19464 19498 19561 19528 19497 19477 19384 19368 19227 19212 19255 19151 19168 18975 18849 18625 18476 18337 18170 18140 18021 17921 17777 17693 17501 17386 17299 17344 17353 17146 16832 16661 16610 16417 16328 16157 15934 15866 15590 15585 15578 15568 15563 15553 15530 15504 15493 15340 15152 15037 15005 14999 14934 14945 15075 15182 15236 15194 15068 15039 15080 15027 14994 15017 15122 15083 15121 14990 14976 14975 14959 14981 14946 15096 15182 15132 15072 15158 15120 15160 15245 15310 15260 15291 15340 15349 15262 15270 15153 15213 15343 15423 15491 15458 15416 15404 15422 15510 15619 15655 15571 15581 15663 15793 15817 15835 15833 15910 16016 16096 16138 16208 16386 16447 16505 16659 16755 16761 16734 16646 16658 16530 16439 16308 16170 16135 16169 16120 16043 15890 15713 15590 15419 15270 15069 14765 14557 14406 14226 14131 14067 13443 13411 13399 13384 13378 13360 13347 13342 13339 13339 13338 13334 13328 13315 13299 13275 13247 13210 13171 13157 13128 13071 12983 12904 12882 12872 12843 12826 12805 12798 12801 12812 12819 12824 12822 12801 12776 12752 12713 12699 12670 12654 12513 12347 12325 12281 12236 12086 11974 11922 11883 11849 11868 11867 11880 11481 11422 11469 11361 11234 11252 11189 11115 11139 11255 11364 11387 11517 11569 11569 11623 11553 11508 11476 11456 11440 11339 11331 11219 11028 11052 11030 11169 11208 11107 10928 10792 10770 10727 10789 10750 10712 10801 10815 10898 10859 10912 10980 11000 11073 10907 10831 10820 10849
19024 18901 18905 18919 19003 19094 19213 19210 19302 19257 19266 19392 19411 19414 19437 19323 19388 19218 19159 19172 19022 19043 19110 19078 19152 18961 18723 18535 18440 18278 18190 18116 18094 17916 17840 17652 17526 17463 17317 17254 17303 17141 16964 16783 16606 16380 16276 16064 15866 15787 15590 15584 15575 15570 15570 15558 15531 15516 15389 15208 15057 15039 14966 14916 14944 14961 14982 15103 15077 15032 15059 14992 14985 15050 14985 15057 15146 15187 15155 15078 15005 14930 14918 14894 14958 15077 15176 15103 15046 15108 15184 15185 15298 15288 15213 15292 15247 15228 15217 15211 15121 15243 15427 15493 15516 15526 15430 15446 15450 15591 15580 15651 15594 15708 15707 15807 15853 15928 15908 15909 15950 16017 16156 16205 16310 16471 16514 16678 16918 16818 16847 16816 16793 16605 16499 16368 16186 16146 16149 16217 16227 16051 15852 15743 15572 15333 15124 14951 14743 14578 14475 14335 14174 14071 14062 13937 13805 13342 13340 13339 13339 13339 13339 13338 13334 13328 13315 13299 13275 13247 13210 13171 13129 13085 13042 13000 12959 12907 12884 12843 12826 12805 12798 12801 12809 12813 12823 12836 12840 13471 13581 13601 13741 13577 13450 13412 13300 12259 12214 12170 12149 12037 11959 11918 11884 11868 11867 11880 11658 11591 11655 11587 11543 11528 11453 11366 11335 11421 11480 11494 11515 11612 11678 11681 11701 11565 11511 11521 11464 11437 11316 11229 11179 11133 11120 11140 11078 10998 10974 10882 10805 10754 10866 10732 10657 10690 10754 10782 10840 10838 10873 10924 11101 10994 10915 10990 10990
18924 18861 18800 18867 18932 19050 19092 19075 19164 19096 19097 19222 19278 19347 19315 19196 19186 19083 18999 18936 18912 18966 19009 19002 19093 18830 18653 18463 18361 18223 18125 18151 18102 17948 17859 17743 17509 17389 17365 17275 17205 17130 17033 16898 16731 16456 16227 16094 15862 15747 15590 15584 15579 15579 15579 15568 15546 15393 15311 15141 14944 14873 14807 14850 14854 14939 14936 14928 14968 14890 14927 14929 14988 15014 15001 15188 15262 15238 15273 15192 15056 15011 14964 14938 14985 15099 15154 15152 15097 15220 15233 15204 15237 15209 15139 15223 15206 15151 15143 15169 15097 15255 15416 15459 15505 15528 15471 15541 15587 15574 15596 15643 15713 15751 15684 15726 15834 15944 15952 15980 15968 16094 16185 16134 16211 16432 16576 16789 16977 16940 17005 16945 16921 16678 16513 16427 16286 16292 16176 16246 16287 16129 15931 15782 15680 15451 15234 15057 14874 14719 14609 14450 14246 14147 14111 13988 13901 13862 13721 13514 13327 13338 13339 13338 13332 13328 13315 13299 13275 13247 13210 13171 13129 13085 13042 13000 12959 12907 12884 12843 12826 12806 12794 12790 12786 12788 13323 13380 13457 13677 13772 13829 13966 13790 13691 13527 13491 13334 13150 12104 12084 12001 11939 11934 11900 11884 11867 11880 11742 11828 11807 11828 11771 11801 11714 11550 11490 11497 11597 11589 11546 11625 11733 11752 11771 11708 11581 11438 11406 11467 11417 11264 11217 11180 11108 11041 11073 11021 11046 10868 10769 10740 10840 10755 10682 10678 10721 10770 10837 10836 10875 10977 11151 11023 10979 11027 11012
18926 18844 18799 18787 18907 18989 18995 19067 19053 19018 19024 19142 19114 19214 19180 19057 19038 19001 18899 18913 18978 18925 18996 18976 19075 18813 18649 18433 18324 18248 18167 18150 18095 17960 17876 17729 17510 17366 17260 17287 17174 17058 16928 16785 16662 16429 16204 15986 15824 15733 15590 15586 15586 15586 15586 15575 15327 15219 15124 15032 14870 14861 14769 14785 14770 14821 14927 14824 14804 14868 14982 14888 14958 14934 15066 15128 15265 15295 15251 15276 15203 15153 15088 15055 15187 15170 15299 15264 15283 15308 15283 15202 15257 15268 15254 15185 15230 15162 15245 15133 15089 15262 15452 15529 15546 15620 15619 15614 15688 15678 15605 15646 15696 15742 15691 15755 15728 15798 15934 15981 16005 16148 16278 16322 16296 16391 16521 16811 16969 16940 16945 16887 16818 16741 16646 16469 16388 16410 16347 16294 16385 16171 15985 15924 15796 15587 15335 15256 15076 14922 14696 14501 14301 14286 14170 14064 14075 13952 13771 13548 13396 13399 13390 13346 13315 13309 13296 13288 13268 13247 13210 13171 13129 13085 13042 13000 12959 12907 12884 12851 12839 12821 12804 12798 13439 13554 13579 13596 13614 13748 13979 14014 14231 13980 13866 13723 13621 13478 13383 13187 12940 11995 11919 11913 11913 11913 11880 11880 11882 11903 11875 11847 11775 11814 11841 11750 11641 11693 11775 11752 11662 11760 11804 11877 11856 11798 11567 11561 11522 11458 11538 11444 11327 11259 11159 11178 11150 11029 11041 10916 10852 10857 10827 10854 10763 10837 10839 10850 10920 10924 11078 11131 11256 11145 11089 11062 11147
18997 18893 18773 18808 18774 18886 18989 18945 18931 18987 19001 19042 19022 19063 19025 18978 18930 18867 18910 18956 18929 18913 18934 18914 18939 18704 18596 18528 18399 18310 18269 18190 18009 17888 17842 17675 17539 17371 17231 17279 17213 17137 16947 16795 16565 16367 16072 15919 15872 15836 15592 15592 15592 15592 15592 15391 15338 15219 15016 14871 14765 14772 14859 14768 14703 14767 14897 14824 14738 14823 14914 14919 14925 14920 15042 15141 15227 15242 15289 15351 15299 15299 15282 15226 15298 15276 15356 15380 15390 15315 15310 15295 15288 15288 15309 15197 15153 15163 15243 15180 15117 15291 15426 15587 15630 15741 15784 15808 15782 15771 15725 15765 15751 15622 15608 15659 15701 15769 15866 15858 15916 16095 16282 16385 16397 16414 16541 16717 16846 16868 16856 16876 16796 16758 16716 16647 16524 16546 16481 16445 16481 16313 16125 16035 15989 15698 15449 15353 15168 14987 14814 14638 14430 14376 14312 14232 14189 14069 13837 13723 13559 13469 13412 13455 13522 13571 13634 13791 13204 13188 13157 13143 13114 13085 13042 13000 12959 12931 12917 12890 12877 13323 13514 13537 13564 13684 13804 13818 13828 13942 14103 14259 14381 14270 14042 13960 13830 13717 13598 13353 13165 12993 11913 11896 11896 11896 11896 11880 12012 12023 11997 11917 11890 11906 11917 11757 11689 11769 11842 11784 11679 11775 11914 11966 12060 11866 11639 11536 11518 11535 11568 11500 11494 11419 11248 11144 11145 11116 11074 10970 10994 10980 10848 10837 10875 10837 10901 10889 10921 11003 11156 11178 11262 11278 11185 11207 11261
18914 18939 18831 18764 18708 18712 18849 18759 18761 18757 18809 18872 18963 18898 18974 18903 18867 18910 18902 18874 18878 18834 18840 18856 18741 18697 18585 18410 18324 18248 18286 18168 18126 17956 17807 17701 17593 17378 17251 17190 17074 16954 16756 16623 16457 16251 16089 15882 15828 15725 15606 15534 15489 15450 15390 15359 15309 15095 14970 14913 14773 14773 14812 14748 14643 14682 14864 14762 14753 14833 14825 14902 14937 14976 15099 15117 15279 15401 15441 15391 15307 15387 15358 15286 15319 15264 15303 15427 15460 15395 15403 15368 15419 15345 15280 15166 15187 15198 15244 15246 15167 15262 15438 15565 15598 15674 15816 15847 15892 15911 15800 15874 15838 15701 15698 15688 15716 15726 15805 15909 16010 16049 16188 16439 16540 16542 16599 16709 16860 16900 16875 16794 16755 16805 16829 16674 16572 16634 16590 16558 16557 16357 16264 16174 16005 15877 15636 15579 15372 15204 14962 14679 14507 14437 14309 14218 14209 14127 13969 13870 13671 13651 13587 13608 13560 13624 13746 13865 13998 13912 13803 13737 13043 13028 13013 13013 13013 12983 12968 13249 13333 13472 13554 13519 13591 13814 13952 14006 14084 14269 14443 14617 14705 14451 14309 14173 14126 13940 13799 13588 13440 13183 13060 12955 12867 12696 12613 12368 12174 12198 12107 12103 12076 12045 12048 11975 11778 11837 11948 11811 11767 11928 11977 12065 12131 11974 11786 11655 11711 11638 11627 11715 11654 11592 11394 11330 11346 11252 11160 11158 11096 11001 10925 10934 10999 10977 10886 10883 10867 10946 11170 11225 11267 11349 11286 11246 11247
18904 18883 18878 18795 18600 18620 18717 18695 18698 18666 18657 18722 18790 18819 18822 18881 18865 18955 18942 18883 18886 18871 18753 18686 18597 18582 18542 18355 18239 18273 18191 18211 18125 17896 17744 17657 17524 17450 17290 17131 17001 16738 16569 16442 16392 16231 16128 15937 15679 15649 15500 15348 15301 15316 15212 15272 15272 15141 15003 14866 14797 14827 14819 14719 14667 14689 14762 14729 14659 14738 14722 14884 15011 15026 15084 15168 15372 15448 15480 15413 15409 15493 15475 15478 15393 15405 15371 15465 15557 15586 15500 15561 15518 15455 15280 15165 15101 15157 15307 15323 15312 15368 15339 15471 15553 15621 15783 15885 15927 15973 15910 15931 15870 15795 15777 15785 15755 15808 15796 15888 16018 16101 16198 16435 16569 16611 16645 16734 16852 16937 16932 16902 16808 16791 16878 16746 16733 16725 16780 16705 16679 16548 16307 16220 16118 15931 15862 15731 15569 15270 15077 14856 14630 14535 14419 14336 14329 14190 14057 13951 13802 13729 13763 13720 13674 13730 13828 13978 14009 13874 13825 13733 13572 13488 13462 13314 13235 13333 13400 13477 13548 13602 13576 13628 13729 13873 14092 14150 14261 14520 14706 14819 14918 14685 14556 14486 14411 14235 13938 13852 13656 13432 13261 13177 13005 12852 12803 12629 12402 12311 12253 12264 12184 12147 12088 12077 11958 11950 11933 11862 11833 11968 11981 12028 12145 12057 11911 11817 11798 11842 11806 11868 11859 11755 11638 11490 11425 11438 11359 11254 11106 11147 11103 11062 11133 11117 10984 10911 10905 10985 11125 11220 11285 11318 11349 11374 11279
18889 18826 18722 18716 18684 18668 18716 18646 18655 18680 18633 18759 18796 18818 18855 18960 19049 19050 19009 18911 18787 18718 18751 18629 18590 18472 18486 18355 18336 18313 18153 18109 18175 17935 17835 17693 17501 17504 17337 17192 17046 16854 16640 16563 16422 16271 16083 15895 15770 15661 15510 15459 15355 15241 15200 15212 15356 15209 15006 14873 14819 14812 14787 14726 14672 14662 14711 14707 14811 14788 14799 14925 15097 15139 15047 15196 15307 15435 15387 15402 15316 15347 15360 15339 15319 15353 15355 15381 15407 15502 15424 15360 15423 15304 15214 15075 15032 15121 15295 15298 15330 15380 15521 15650 15724 15771 15820 15856 15981 16057 16147 16063 16117 16174 16134 16107 16083 16134 16177 16215 16264 16354 16377 16520 16691 16771 16845 16855 16965 16963 16993 17028 17082 17083 17077 16929 16879 16798 16844 16838 16799 16660 16484 16395 16260 16171 15980 15832 15761 15424 15189 15083 14821 14637 14613 14405 14353 14237 14112 13976 13891 13785 13844 13837 13863 13964 13975 14107 14187 14006 13941 13922 13827 13676 13709 13658 13538 13671 13733 13781 13809 13825 13932 13945 14068 14160 14310 14353 14414 14649 14945 14975 15081 14888 14818 14618 14564 14319 14133 14027 13944 13729 13453 13467 13377 13233 13007 12851 12671 12609 12587 12531 12492 12395 12297 12262 12215 12169 12079 12066 12071 12175 12195 12277 12393 12332 12161 12137 12051 12094 12027 12008 11990 11931 11891 11799 11574 11590 11561 11527 11434 11377 11356 11329 11348 11319 11255 11209 11042 11143 11229 11359 11437 11484 11595 11565 11452
18790 18722 18691 18760 18711 18800 18800 18758 18689 18667 18670 18807 18823 18834 18938 19027 19117 19076 19011 18870 18749 18685 18653 18641 18537 18421 18414 18427 18365 18249 18110 18128 18117 17962 17883 17725 17596 17495 17339 17228 17074 16822 16612 16499 16499 16312 16110 15920 15756 15658 15641 15519 15341 15295 15269 15276 15339 15120 14996 14913 14923 14799 14778 14760 14627 14728 14772 14809 14907 14907 14894 15011 15254 15170 15120 15213 15298 15364 15368 15279 15315 15239 15196 15239 15336 15381 15353 15389 15352 15366 15296 15266 15306 15286 15220 15099 15002 15115 15293 15260 15249 15401 15605 15701 15861 15849 15919 15946 16088 16237 16265 16287 16350 16428 16407 16422 16495 16505 16479 16443 16385 16491 16624 16766 16898 16949 17077 17070 17133 17057 17087 17236 17277 17300 17228 17096 16899 16917 16943 16918 16808 16635 16587 16529 16436 16313 16126 16080 15974 15635 15425 15214 14975 14818 14701 14547 14435 14362 14213 14140 13969 13911 13940 14033 14099 14082 14099 14176 14292 14155 14137 14043 14040 13935 13930 13860 13856 13915 14019 14108 14111 14167 14203 14252 14316 14353 14408 14511 14598 14877 15061 15160 15262 15205 15027 14833 14750 14598 14370 14213 14151 14018 13774 13777 13696 13545 13271 13060 12939 12963 12936 12838 12683 12666 12531 12496 12428 12332 12303 12278 12264 12448 12517 12533 12633 12519 12524 12393 12323 12252 12177 12186 12089 12060 12064 12001 11813 11808 11808 11762 11657 11614 11669 11574 11527 11529 11429 11413 11306 11429 11431 11482 11630 11721 11820 11794 11676
18679 18647 18670 18656 18681 18716 18778 18725 18593 18596 18770 18754 18798 18897 19020 19127 19187 19072 19059 18896 18748 18729 18575 18551 18541 18490 18493 18477 18370 18313 18172 18114 18066 17964 17894 17725 17502 17432 17250 17183 17064 16892 16610 16506 16498 16296 16156 15922 15690 15682 15681 15608 15535 15379 15359 15339 15227 15104 15008 14975 14872 14805 14822 14772 14630 14688 14788 14886 14887 14939 14999 15217 15420 15287 15133 15194 15225 15247 15209 15154 15233 15151 15140 15153 15241 15345 15317 15392 15329 15288 15327 15334 15297 15244 15167 15053 15055 15197 15343 15301 15351 15467 15673 15809 15914 16003 16029 16190 16231 16286 16411 16488 16496 16623 16676 16723 16793 16746 16755 16733 16705 16774 16841 16943 16964 17147 17216 17289 17255 17247 17273 17357 17400 17349 17340 17176 17033 17112 17118 16990 16988 16766 16665 16606 16481 16476 16362 16277 16169 15821 15607 15390 15184 15008 14913 14806 14629 14464 14266 14189 14080 14056 13999 14155 14153 14136 14190 14299 14321 14210 14203 14178 14237 14195 14119 14068 14042 14137 14278 14341 14377 14460 14558 14545 14631 14671 14630 14754 14827 15018 15126 15285 15380 15278 15069 15074 15051 14867 14603 14480 14398 14261 14061 14000 13990 13875 13597 13344 13187 13123 13126 13027 12960 12949 12813 12754 12663 12571 12583 12644 12576 12685 12727 12698 12772 12628 12618 12627 12580 12482 12366 12318 12194 12219 12172 12204 12138 12070 12070 11994 11832 11780 11908 11942 11861 11725 11648 11643 11507 11649 11643 11662 11822 11942 12015 12047 11985
18632 18606 18670 18683 18760 18679 18689 18602 18446 18607 18774 18816 18858 18887 18995 19118 19139 19116 19058 18888 18781 18717 18573 18538 18611 18605 18649 18591 18466 18323 18239 18113 17907 17815 17794 17646 17460 17372 17193 17132 16978 16831 16649 16596 16483 16313 16129 15939 15652 15696 15627 15624 15612 15499 15483 15385 15201 15109 15129 15052 14943 14798 14756 14733 14684 14751 14816 14964 14987 15063 15146 15309 15468 15335 15274 15205 15114 15087 15080 15112 15262 15154 15163 15248 15272 15193 15238 15317 15313 15348 15348 15301 15283 15171 15088 15049 15076 15207 15283 15402 15435 15626 15750 15893 16034 16158 16190 16311 16433 16485 16475 16557 16764 16779 16901 16998 16991 16955 17003 16938 16967 17053 17125 17182 17153 17221 17310 17467 17499 17478 17447 17485 17606 17456 17427 17379 17279 17272 17195 17147 17106 16931 16744 16632 16569 16533 16502 16372 16256 15982 15837 15600 15385 15267 15080 14912 14790 14652 14445 14312 14134 14183 14179 14197 14297 14277 14293 14337 14411 14339 14345 14343 14338 14379 14406 14329 14301 14500 14598 14617 14748 14826 14832 14782 14857 14872 14979 14988 15031 15101 15202 15316 15435 15312 15206 15266 15230 15019 14907 14687 14573 14432 14320 14269 14247 14175 13977 13778 13524 13408 13384 13279 13119 13153 13128 13081 12921 12916 12857 12889 12858 12887 12854 12844 12913 12813 12770 12845 12801 12705 12573 12418 12360 12306 12305 12321 12448 12388 12308 12202 12016 12020 12115 12190 12155 12032 11953 11908 11807 11830 11807 11922 12031 12186 12234 12264 12252
18512 18548 18619 18581 18666 18635 18613 18575 18494 18630 18719 18754 18708 18739 18882 18943 19067 19070 19105 18888 18770 18733 18724 18662 18743 18635 18581 18621 18516 18349 18358 18090 17933 17826 17775 17684 17576 17477 17208 17095 16944 16837 16702 16668 16484 16301 16111 15887 15695 15687 15716 15612 15515 15526 15476 15392 15225 15072 15041 14896 14817 14783 14707 14705 14676 14731 14845 14986 15084 15113 15106 15329 15407 15262 15168 15087 15044 15099 15102 15140 15214 15202 15123 15241 15292 15226 15307 15265 15333 15271 15290 15326 15436 15297 15229 15184 15246 15282 15433 15581 15589 15777 15891 15970 16143 16252 16362 16460 16569 16637 16664 16821 16970 16979 17041 17129 17145 17144 17137 17181 17228 17349 17447 17370 17447 17478 17589 17748 17762 17774 17691 17715 17732 17673 17515 17444 17380 17383 17251 17216 17125 17060 16866 16819 16719 16666 16569 16479 16401 16112 15882 15660 15416 15371 15295 15080 14966 14732 14584 14455 14264 14335 14371 14390 14398 14368 14348 14468 14544 14468 14449 14422 14367 14446 14529 14498 14535 14617 14743 14853 14860 14907 15022 15035 15087 15104 15204 15129 15220 15295 15381 15491 15496 15490 15329 15442 15402 15235 15101 14882 14783 14619 14515 14461 14500 14235 14062 13856 13795 13637 13541 13528 13362 13318 13227 13207 13176 13156 13144 13162 13143 13039 12929 12885 12933 12803 12785 12890 12948 12770 12753 12711 12647 12595 12547 12592 12664 12582 12473 12319 12261 12341 12374 12338 12310 12198 12137 12169 12106 12080 12103 12121 12218 12298 12460 12451 12395
18485 18467 18466 18533 18616 18524 18532 18488 18445 18495 18621 18527 18560 18677 18762 18902 19074 19091 19134 19000 18797 18787 18808 18842 18836 18716 18597 18562 18445 18397 18355 18172 17984 17837 17780 17692 17679 17507 17268 17118 16972 16932 16813 16641 16446 16322 16165 15983 15722 15803 15767 15642 15484 15534 15461 15319 15187 15024 14986 14858 14782 14733 14727 14804 14770 14805 14839 14926 15058 15111 15146 15338 15455 15251 15164 15115 15052 15100 15168 15204 15269 15192 15158 15184 15265 15248 15261 15304 15354 15362 15327 15409 15576 15471 15465 15407 15300 15435 15594 15711 15826 15951 16042 16190 16341 16404 16458 16627 16787 16793 16908 16988 17062 17102 17143 17216 17370 17341 17341 17518 17588 17640 17685 17650 17727 17784 17930 18029 18055 18005 17835 17835 17865 17744 17590 17562 17490 17483 17410 17383 17255 17113 16927 16815 16829 16809 16684 16562 16427 16192 15974 15670 15465 15405 15385 15195 15074 14944 14735 14629 14518 14517 14559 14482 14472 14449 14407 14449 14557 14542 14545 14486 14438 14539 14642 14608 14656 14745 14923 15009 15035 15072 15199 15166 15247 15327 15429 15348 15381 15473 15588 15540 15561 15585 15574 15638 15657 15426 15261 15146 15093 14947 14733 14640 14656 14403 14223 14046 13942 13835 13794 13759 13636 13531 13446 13448 13493 13441 13376 13317 13374 13170 13077 12945 12921 12889 12910 13028 13039 12904 12897 12916 12850 12819 12785 12817 12867 12769 12736 12544 12463 12465 12535 12569 12531 12465 12430 12395 12454 12406 12298 12371 12483 12567 12634 12615 12557
18418 18434 18431 18574 18637 18513 18495 18417 18306 18368 18501 18534 18504 18613 18770 18898 19081 19073 19103 19072 18921 18818 18822 18850 18920 18791 18588 18451 18373 18420 18370 18170 17979 17845 17787 17762 17724 17485 17376 17146 17021 16937 16846 16626 16487 16333 16194 16028 15828 15770 15817 15668 15429 15403 15321 15261 15242 15053 15008 14926 14840 14883 14847 14909 14848 14869 14928 15064 15173 15195 15239 15316 15503 15306 15191 15187 15134 15164 15128 15203 15201 15213 15186 15273 15404 15450 15451 15436 15377 15397 15436 15491 15621 15527 15578 15383 15356 15521 15708 15815 15931 16024 16167 16233 16391 16533 16565 16684 16816 16932 17002 17090 17121 17149 17328 17375 17528 17566 17567 17722 17822 17907 17888 17926 17954 18098 18231 18269 18311 18207 18059 17960 17911 17720 17645 17633 17503 17566 17561 17474 17421 17310 17122 17058 16919 16829 16768 16622 16463 16342 16083 15794 15608 15532 15541 15392 15212 15152 14917 14752 14653 14673 14635 14511 14474 14525 14502 14550 14605 14560 14629 14578 14562 14616 14731 14730 14809 14781 14916 15042 15213 15160 15236 15344 15378 15394 15481 15430 15440 15547 15629 15667 15702 15715 15778 15831 15767 15660 15468 15308 15313 15163 14991 14900 14848 14608 14385 14150 14031 13986 13831 13891 13822 13826 13707 13827 13878 13817 13698 13702 13675 13500 13300 13153 13017 12967 12969 13072 13233 13195 13156 13162 13052 13022 13097 13079 13091 12959 12913 12771 12749 12817 12732 12740 12744 12574 12555 12683 12688 12622 12518 12688 12782 12778 12755 12854 12870
18463 18424 18443 18492 18604 18521 18380 18363 18289 18405 18417 18472 18471 18524 18699 18831 19015 19103 19112 19092 19067 18933 18914 18935 19014 18788 18634 18462 18372 18382 18270 18197 18080 17932 17886 17718 17660 17556 17359 17254 17057 16979 16897 16662 16533 16440 16282 16067 15896 15881 15762 15595 15463 15357 15233 15203 15237 15142 14999 14975 14876 14943 14966 14994 15004 14993 15080 15175 15349 15357 15372 15434 15506 15386 15287 15176 15129 15217 15185 15139 15027 15039 15128 15271 15430 15463 15546 15498 15439 15500 15460 15548 15652 15609 15582 15449 15440 15671 15844 15927 16059 16107 16174 16264 16400 16553 16581 16709 16947 17042 17165 17108 17162 17282 17397 17434 17587 17721 17907 18072 18116 18156 18183 18146 18108 18314 18417 18522 18545 18480 18315 18121 17895 17779 17738 17721 17613 17646 17668 17557 17480 17472 17376 17279 17107 17017 16877 16753 16540 16381 16144 15944 15754 15668 15635 15495 15431 15336 15202 15010 14898 14791 14614 14550 14529 14517 14504 14549 14532 14574 14702 14729 14771 14808 14890 14871 14883 14889 14958 15178 15273 15244 15338 15376 15477 15560 15626 15632 15596 15709 15790 15779 15805 15909 15904 15927 15867 15850 15729 15521 15438 15293 15260 15135 15007 14762 14460 14272 14139 13996 13961 13966 13912 14007 14002 14057 14172 14047 13988 13908 13855 13714 13535 13411 13171 13142 13143 13272 13366 13364 13344 13282 13141 13165 13304 13283 13352 13227 13105 13034 13092 13112 13017 12881 12855 12732 12734 12857 12864 12843 12851 12931 13050 13042 12976 13084 13106
18339 18344 18265 18364 18401 18321 18287 18260 18253 18247 18335 18324 18400 18555 18661 18876 18985 19039 19052 18982 18952 18929 18850 18835 18967 18694 18608 18488 18354 18330 18295 18329 18278 18153 18075 17924 17809 17631 17405 17310 17068 17039 16836 16661 16568 16416 16236 16119 16001 15955 15804 15692 15544 15533 15431 15484 15440 15249 15235 15111 15010 15090 15103 15139 15132 15089 15071 15195 15297 15365 15369 15335 15476 15369 15351 15188 15207 15245 15121 15057 14950 15111 15193 15354 15421 15551 15642 15601 15549 15596 15560 15528 15603 15546 15588 15572 15555 15806 15906 16002 16082 16128 16154 16347 16411 16511 16709 16797 17045 17090 17229 17239 17346 17399 17547 17652 17708 17829 18056 18133 18230 18231 18312 18379 18347 18324 18461 18524 18597 18518 18307 18214 18124 18010 18035 17983 17876 17892 17941 17780 17639 17656 17671 17522 17388 17172 17058 16986 16764 16579 16501 16256 16078 15955 15907 15822 15690 15558 15448 15284 15162 15112 15007 14871 14783 14725 14787 14777 14741 14755 14861 14922 14867 14987 14993 15020 15047 14989 15117 15176 15290 15389 15372 15487 15671 15695 15732 15794 15762 15766 15934 15937 15973 15997 16022 15983 15891 15809 15742 15633 15522 15467 15358 15286 15226 14911 14690 14541 14495 14457 14283 14255 14209 14288 14370 14406 14546 14394 14178 14102 13994 13872 13785 13488 13358 13295 13337 13433 13554 13512 13477 13439 13301 13429 13548 13524 13437 13437 13307 13275 13349 13376 13250 13138 13101 13077 12994 13081 13041 13058 13180 13293 13339 13299 13359 13354 13355
18123 18153 18152 18253 18293 18184 18147 18168 18183 18156 18162 18326 18366 18538 18639 18805 19073 18941 18931 18839 18792 18768 18773 18777 18824 18616 18486 18398 18301 18306 18326 18296 18352 18287 18200 18008 17893 17646 17487 17291 17179 17049 16839 16762 16598 16504 16285 16227 16071 15995 15935 15783 15736 15653 15661 15636 15518 15416 15405 15248 15144 15186 15184 15212 15239 15156 15118 15090 15123 15271 15304 15258 15337 15369 15293 15256 15192 15186 15158 15012 14980 15040 15134 15363 15520 15640 15643 15577 15575 15560 15599 15608 15597 15625 15527 15574 15638 15863 15963 15962 16068 16176 16172 16307 16459 16568 16711 16951 17100 17181 17259 17318 17477 17635 17800 17776 17864 18070 18183 18219 18381 18476 18538 18527 18460 18398 18443 18571 18634 18539 18394 18421 18363 18360 18269 18240 18184 18088 18116 18046 17916 17971 17921 17792 17702 17459 17315 17167 17006 16878 16785 16644 16388 16284 16154 16030 15919 15769 15649 15625 15506 15407 15337 15251 15051 15036 14969 14951 15006 15064 15084 15087 15077 15167 15172 15101 15094 15099 15159 15305 15366 15422 15520 15617 15787 15785 15908 15841 15820 15892 16001 16068 16062 16075 16078 16072 16029 15977 15871 15834 15719 15635 15445 15351 15345 15224 15031 14964 14938 14806 14603 14501 14521 14645 14683 14749 14817 14688 14492 14323 14188 14104 13937 13645 13459 13513 13441 13580 13747 13744 13677 13611 13589 13603 13741 13731 13601 13650 13617 13567 13612 13549 13470 13365 13232 13332 13341 13292 13231 13402 13484 13484 13607 13688 13669 13665 13668
18068 18073 18012 18010 18110 18133 18075 18090 18107 18053 18075 18215 18230 18364 18536 18748 19036 18876 18886 18791 18714 18781 18815 18827 18792 18614 18567 18392 18302 18244 18246 18331 18415 18248 18137 18048 17832 17716 17492 17328 17237 17067 16923 16682 16587 16435 16306 16142 16004 15925 15919 15839 15789 15717 15657 15752 15707 15650 15559 15326 15135 15240 15269 15271 15298 15155 15054 15159 15153 15228 15305 15281 15372 15440 15375 15385 15351 15271 15264 15091 15062 15106 15192 15424 15534 15547 15626 15533 15541 15495 15475 15508 15572 15592 15577 15577 15669 15878 16009 16145 16253 16231 16291 16372 16393 16581 16753 17005 17145 17171 17343 17455 17636 17678 17858 17926 18049 18157 18341 18445 18511 18537 18705 18596 18576 18552 18631 18683 18664 18641 18605 18544 18496 18537 18419 18377 18477 18317 18337 18255 18102 18140 18147 18029 18046 17802 17717 17492 17346 17278 17115 16920 16618 16473 16383 16304 16144 16010 15966 15883 15768 15619 15581 15444 15386 15245 15212 15167 15138 15136 15213 15260 15230 15166 15169 15242 15277 15296 15394 15451 15490 15547 15643 15796 15823 15886 16026 15935 15968 15943 16051 16127 16204 16250 16196 16205 16155 16125 16013 15867 15800 15683 15577 15563 15465 15362 15354 15217 15231 15146 14952 14843 14784 14844 14815 14950 15033 14837 14657 14528 14469 14367 14106 13893 13661 13684 13659 13734 13894 13784 13771 13783 13781 13803 13894 13873 13787 13877 13955 13864 13912 13840 13720 13610 13552 13564 13459 13467 13516 13659 13707 13714 13861 13911 13977 13978 13944
17999 17906 17859 17855 17933 17994 18027 18085 18054 18023 17978 18126 18159 18368 18557 18780 18905 18787 18732 18699 18731 18801 18825 18850 18788 18712 18527 18425 18367 18353 18280 18385 18440 18254 18188 18092 17895 17683 17514 17458 17288 17122 16950 16713 16595 16463 16433 16212 16064 15974 15901 15865 15806 15760 15730 15804 15781 15669 15606 15415 15250 15213 15279 15220 15237 15173 15078 15147 15125 15167 15317 15417 15413 15413 15402 15428 15441 15386 15284 15154 15144 15262 15372 15483 15641 15539 15511 15527 15509 15414 15397 15405 15438 15445 15560 15632 15759 16005 16163 16186 16314 16286 16309 16297 16306 16496 16810 16952 17087 17231 17394 17577 17686 17830 18030 18126 18319 18400 18562 18669 18672 18673 18747 18665 18665 18709 18716 18765 18768 18723 18766 18690 18720 18680 18621 18619 18692 18559 18453 18365 18305 18227 18278 18358 18313 18169 18075 17926 17707 17591 17358 17142 16909 16843 16722 16473 16308 16280 16190 16064 15965 15803 15740 15709 15628 15553 15425 15455 15397 15385 15322 15299 15259 15188 15244 15372 15468 15523 15527 15627 15658 15826 15881 15957 15926 16007 16097 16020 16067 16027 16050 16191 16286 16341 16281 16328 16372 16160 16055 15989 15897 15771 15761 15705 15648 15663 15630 15577 15595 15463 15364 15222 15100 15118 15069 15128 15254 15001 14836 14805 14674 14538 14364 14089 13929 13946 13908 13927 13936 13919 13939 13876 13942 13953 14052 14074 13971 14064 14189 14255 14277 14117 13978 13826 13802 13735 13692 13729 13778 13847 13808 13892 14021 14119 14166 14154 14201
17821 17750 17759 17761 17848 17901 17908 17955 18009 17968 18009 18057 18142 18288 18505 18721 18864 18778 18683 18667 18653 18701 18677 18672 18654 18491 18394 18346 18318 18353 18260 18298 18401 18299 18149 18041 17983 17847 17708 17522 17376 17155 17055 16762 16592 16521 16394 16204 16040 16073 16025 15998 15899 15773 15716 15745 15761 15594 15533 15384 15217 15282 15311 15272 15337 15206 15151 15188 15218 15271 15314 15376 15550 15485 15403 15439 15342 15292 15256 15153 15146 15309 15429 15509 15605 15560 15493 15591 15584 15496 15531 15475 15528 15561 15629 15735 15716 15972 16143 16209 16265 16213 16248 16267 16417 16635 16797 16959 17111 17256 17465 17700 17834 17937 18157 18314 18410 18401 18534 18651 18783 18714 18768 18779 18725 18837 18829 18849 18882 18899 19002 19006 18946 18897 18913 18842 18893 18718 18650 18581 18517 18496 18441 18441 18547 18456 18289 18074 17896 17719 17550 17304 17226 17056 16972 16735 16576 16410 16406 16281 16095 16122 16071 15927 15882 15847 15645 15692 15613 15554 15467 15443 15458 15396 15343 15448 15537 15600 15642 15796 15899 15996 16016 16099 16126 16143 16267 16248 16269 16267 16283 16428 16471 16403 16326 16271 16323 16284 16150 16225 16208 16017 15931 15914 15857 15895 15956 15964 15894 15815 15766 15596 15388 15403 15380 15465 15448 15329 15097 14998 14888 14647 14568 14355 14148 14142 14030 14134 14137 14066 14062 14143 14172 14278 14316 14319 14184 14205 14329 14350 14416 14336 14231 14185 14171 14088 14071 14052 14071 14147 14084 14088 14163 14242 14273 14339 14394
17689 17632 17569 17653 17644 17751 17841 17858 17933 18035 18081 18168 18145 18277 18470 18625 18836 18723 18721 18665 18552 18578 18654 18621 18498 18383 18306 18295 18282 18313 18218 18267 18319 18145 18078 17987 18018 17886 17782 17596 17512 17326 17076 16825 16580 16473 16407 16241 16091 16091 16194 16176 16034 15909 15831 15847 15757 15553 15475 15439 15307 15283 15279 15254 15332 15241 15199 15191 15307 15274 15354 15471 15562 15466 15326 15390 15355 15230 15149 15061 15088 15318 15475 15519 15652 15559 15498 15582 15606 15643 15656 15567 15521 15541 15651 15718 15706 15943 16175 16204 16229 16304 16269 16344 16482 16681 16757 16943 17115 17247 17507 17823 18033 18139 18304 18380 18502 18481 18581 18667 18843 18829 18896 18878 18901 18898 18907 18924 19060 19138 19192 19184 19076 19134 19153 19133 19204 19018 18850 18817 18751 18697 18616 18662 18701 18587 18481 18264 17998 17809 17672 17549 17511 17409 17252 17050 16778 16608 16560 16421 16296 16362 16327 16247 16073 16064 15935 15859 15830 15733 15677 15684 15736 15684 15547 15592 15595 15762 15814 15879 16058 16108 16235 16240 16260 16378 16393 16473 16503 16539 16467 16592 16607 16457 16326 16286 16339 16389 16371 16378 16431 16280 16175 16107 16051 16127 16227 16262 16171 16102 16068 15954 15758 15769 15655 15703 15705 15547 15313 15147 14983 14834 14743 14531 14312 14325 14262 14361 14358 14254 14258 14340 14380 14458 14455 14493 14435 14488 14579 14512 14554 14536 14604 14549 14442 14483 14446 14360 14297 14378 14400 14425 14362 14290 14332 14441 14581
17432 17464 17433 17486 17466 17496 17687 17658 17691 17894 17942 17970 18065 18198 18344 18557 18694 18701 18616 18567 18459 18493 18471 18506 18409 18360 18368 18326 18223 18336 18268 18351 18331 18192 18074 17931 17918 17862 17777 17595 17554 17366 17062 16896 16677 16528 16479 16353 16225 16212 16226 16128 16080 16014 15890 15830 15731 15669 15518 15497 15417 15321 15304 15303 15315 15248 15297 15341 15415 15427 15514 15555 15543 15495 15305 15393 15368 15284 15264 15210 15229 15370 15376 15581 15664 15611 15605 15651 15657 15724 15692 15669 15697 15616 15653 15667 15673 15890 16181 16249 16338 16358 16372 16495 16650 16685 16836 16974 17251 17467 17628 17957 18253 18325 18405 18424 18474 18623 18762 18856 19029 19057 19021 19119 19145 19133 19055 19172 19268 19309 19216 19180 19218 19190 19269 19300 19335 19154 19017 18972 18845 18794 18862 18852 18896 18722 18609 18475 18250 18165 18028 17965 17830 17770 17549 17377 17096 16873 16738 16605 16437 16450 16460 16394 16379 16289 16185 16136 16092 15985 15886 15895 15998 15800 15739 15713 15687 15811 15890 15980 16103 16254 16362 16331 16370 16357 16396 16510 16595 16618 16589 16661 16695 16599 16428 16432 16426 16548 16538 16560 16587 16520 16437 16366 16377 16407 16413 16333 16361 16290 16245 16233 16136 16036 15925 15891 15932 15668 15468 15278 15068 14937 14853 14637 14467 14539 14551 14545 14643 14515 14489 14509 14491 14540 14539 14580 14578 14697 14736 14666 14763 14910 14930 14884 14763 14727 14689 14604 14399 14419 14527 14500 14563 14459 14553 14623 14683
17190 17228 17263 17263 17193 17319 17450 17514 17568 17674 17849 17939 17997 18092 18167 18332 18585 18533 18400 18321 18303 18288 18289 18387 18402 18411 18405 18350 18270 18332 18373 18399 18407 18220 18055 17976 17935 17893 17776 17573 17482 17345 17098 16952 16819 16668 16586 16469 16243 16187 16257 16107 16069 16026 15863 15848 15823 15716 15620 15571 15440 15424 15450 15317 15253 15289 15386 15420 15437 15540 15613 15583 15548 15433 15309 15330 15320 15372 15359 15277 15272 15346 15377 15518 15577 15588 15653 15746 15764 15705 15657 15707 15761 15713 15624 15723 15722 15923 16150 16266 16329 16424 16539 16606 16724 16830 16937 17096 17306 17571 17838 18087 18353 18483 18522 18562 18543 18743 18826 19016 19228 19175 19139 19264 19302 19269 19310 19452 19475 19390 19362 19336 19409 19332 19341 19366 19462 19301 19263 19136 18992 19010 19057 19080 19035 18807 18681 18608 18488 18452 18312 18251 18180 18064 17868 17685 17478 17173 16972 16735 16597 16633 16711 16629 16672 16579 16389 16362 16274 16215 16170 16130 16217 15997 15826 15701 15673 15905 16054 16176 16261 16277 16375 16312 16360 16365 16415 16595 16725 16631 16612 16658 16708 16626 16559 16602 16524 16638 16715 16800 16789 16737 16760 16750 16628 16604 16570 16497 16553 16548 16471 16394 16414 16215 16141 16146 16074 15742 15500 15305 15154 15003 14931 14780 14613 14631 14747 14782 14887 14871 14775 14684 14653 14629 14654 14722 14778 14822 14804 14906 15061 15160 15136 15119 15079 15040 14915 14763 14629 14615 14705 14722 14696 14670 14681 14783 14798
17024 17050 17134 17166 17200 17296 17392 17432 17521 17726 17880 17905 17949 17981 18073 18306 18534 18424 18351 18349 18309 18295 18376 18415 18373 18327 18353 18379 18322 18301 18448 18369 18430 18261 18063 18029 17852 17832 17706 17603 17495 17379 17241 17030 16928 16795 16688 16578 16314 16189 16223 16089 15978 15917 15926 15903 15951 15815 15676 15667 15620 15571 15684 15478 15330 15459 15528 15469 15450 15576 15666 15727 15686 15635 15579 15446 15423 15516 15613 15540 15474 15563 15632 15718 15839 15905 15907 15930 15969 15901 15880 15888 15902 15881 15818 15812 15881 16061 16194 16305 16442 16408 16516 16552 16689 16793 16956 17242 17420 17657 17962 18263 18479 18602 18578 18519 18586 18837 18936 19154 19350 19287 19266 19300 19408 19421 19540 19620 19657 19572 19485 19460 19558 19468 19497 19526 19565 19557 19441 19233 19086 19115 19224 19108 19106 18978 18864 18779 18638 18565 18446 18335 18286 18215 18011 17812 17517 17307 17173 16903 16723 16738 16724 16720 16816 16751 16623 16545 16387 16452 16322 16299 16243 16101 15994 15942 15968 16162 16261 16421 16476 16513 16521 16506 16431 16407 16487 16687 16755 16758 16720 16810 16860 16750 16576 16595 16595 16678 16822 16873 16945 16863 16895 16783 16704 16668 16690 16711 16732 16662 16570 16583 16495 16400 16358 16335 16334 16013 15754 15514 15450 15293 15132 14976 14844 14865 14864 14957 15005 14998 14903 14793 14750 14823 14811 14810 14825 14925 14923 14997 15058 15150 15120 15065 15083 15084 14907 14850 14763 14773 14785 14706 14679 14697 14758 14773 14775
16958 17044 17071 17079 17154 17280 17446 17434 17546 17704 17850 17967 18019 17998 18088 18289 18461 18387 18315 18373 18383 18424 18358 18337 18299 18309 18223 18244 18302 18342 18475 18426 18435 18338 18163 17978 17828 17689 17551 17562 17473 17398 17408 17180 17010 16859 16723 16597 16422 16271 16151 16071 15996 15991 15888 15932 16027 15869 15712 15722 15719 15766 15797 15704 15529 15515 15576 15577 15518 15686 15816 15832 15787 15783 15750 15663 15601 15726 15769 15714 15724 15772 15793 15947 15992 16035 16128 16111 16126 16074 16125 16061 16061 16052 16022 15939 15914 15998 16157 16297 16492 16491 16549 16614 16780 16911 16984 17261 17432 17709 18083 18334 18622 18655 18596 18600 18673 18846 19023 19216 19433 19401 19419 19486 19566 19712 19816 19805 19842 19785 19640 19670 19590 19654 19638 19695 19702 19688 19566 19379 19274 19247 19340 19248 19280 19140 18933 18851 18729 18612 18454 18484 18464 18316 18085 17845 17661 17483 17314 17124 16832 16904 16852 16894 16961 16909 16814 16719 16625 16639 16543 16441 16278 16157 16154 16104 16170 16294 16457 16581 16630 16635 16692 16692 16631 16603 16670 16725 16833 16909 16881 16966 16981 16830 16713 16698 16655 16705 16803 16845 17013 17013 16967 16945 16872 16754 16744 16881 16918 16779 16653 16635 16664 16553 16489 16509 16491 16258 15991 15802 15647 15412 15286 15178 15067 15101 15091 15193 15239 15208 15111 14986 14939 14939 14945 14995 14979 15005 15078 15153 15132 15058 15067 15147 15145 15097 14925 14897 14823 14736 14744 14658 14647 14680 14760 14740 14833
16999 17035 16990 17054 17093 17195 17378 17425 17535 17675 17782 17902 17967 18054 18084 18268 18405 18330 18289 18411 18478 18473 18371 18266 18298 18266 18344 18300 18257 18324 18488 18508 18585 18402 18195 18045 17848 17716 17565 17593 17522 17453 17508 17276 17079 16934 16870 16690 16382 16282 16203 16146 16051 15979 15987 16003 15982 15856 15754 15824 15869 15909 15910 15762 15683 15742 15723 15737 15665 15825 15826 15934 15924 15856 15844 15890 15877 15896 15895 15898 15815 15857 15945 16121 16074 16193 16268 16248 16209 16241 16295 16226 16282 16195 16200 16130 16064 16165 16326 16401 16549 16615 16671 16805 16898 16966 17128 17395 17649 17831 18111 18386 18667 18711 18671 18717 18851 18998 19268 19429 19573 19564 19593 19656 19751 19866 19967 20023 19993 19933 19885 19766 19793 19840 19741 19741 19814 19701 19613 19521 19489 19413 19454 19428 19377 19215 19130 19042 18822 18716 18631 18546 18488 18245 18107 17938 17835 17623 17396 17159 16893 16969 16875 16916 17015 16872 16808 16740 16743 16751 16671 16519 16458 16388 16291 16307 16324 16520 16556 16663 16786 16810 16861 16788 16805 16790 16877 16863 16951 17053 17154 17067 17077 16950 16958 16955 16880 16854 17003 17087 17114 17111 17061 16969 16997 16949 16878 17009 17153 16949 16897 16871 16767 16651 16658 16647 16631 16352 16189 16049 15969 15655 15472 15330 15188 15256 15166 15330 15381 15322 15213 15234 15198 15131 15221 15150 15133 15132 15084 15198 15257 15210 15117 15182 15267 15067 14959 14909 14807 14735 14694 14683 14736 14760 14859 14857 14905
16946 16988 16904 16895 16983 17150 17406 17461 17601 17631 17646 17842 17932 18077 18193 18209 18228 18334 18321 18347 18499 18400 18335 18315 18274 18269 18379 18258 18234 18395 18493 18558 18617 18394 18289 18076 17764 17660 17596 17609 17618 17558 17563 17399 17272 17171 16987 16694 16450 16312 16135 16075 16050 16134 16096 16033 15982 15862 15864 15940 15962 15976 16021 15969 15908 15963 15924 15824 15800 15918 15941 16096 16126 16106 16054 16031 16047 16132 16101 16028 15999 16096 16203 16271 16243 16265 16310 16331 16282 16366 16442 16392 16464 16344 16323 16325 16285 16437 16561 16655 16700 16705 16702 16825 16937 17053 17287 17578 17755 18049 18237 18496 18708 18825 18845 18941 18946 19135 19416 19617 19770 19788 19856 19872 20011 20068 20130 20154 20073 20078 20061 19958 19966 19994 19926 19904 19824 19706 19680 19668 19587 19619 19583 19500 19499 19431 19315 19126 18934 18838 18795 18633 18534 18306 18202 18101 17969 17805 17539 17305 16987 17036 17005 17011 17010 16982 16839 16801 16849 16787 16736 16591 16567 16555 16534 16607 16588 16702 16747 16829 17034 16988 16996 16967 17011 17038 17073 17062 17108 17195 17303 17248 17252 17185 17130 17072 16990 17070 17179 17215 17239 17185 17099 17017 17053 17035 17084 17226 17364 17146 17046 17054 16951 16864 16832 16739 16714 16500 16377 16227 16166 16009 15768 15638 15435 15380 15320 15428 15458 15434 15401 15402 15388 15324 15379 15305 15307 15201 15203 15230 15337 15229 15203 15199 15317 15192 14993 14966 14839 14755 14747 14780 14734 14843 14852 14924 14901
16770 16823 16876 17045 17067 17147 17338 17424 17579 17549 17667 17751 17937 18134 18198 18209 18217 18248 18249 18331 18383 18315 18238 18298 18277 18175 18247 18209 18168 18321 18489 18646 18706 18456 18273 17981 17769 17636 17587 17685 17655 17622 17465 17308 17225 17117 16938 16681 16448 16380 16243 16190 16040 16115 16095 16069 16003 15988 15963 16043 16073 16064 16090 16065 16008 16077 15973 15960 15973 16035 16191 16242 16177 16205 16219 16210 16235 16288 16274 16162 16162 16239 16311 16299 16235 16258 16362 16324 16367 16377 16461 16421 16418 16441 16439 16367 16382 16539 16680 16791 16853 16833 16907 16977 17099 17254 17484 17667 17931 18157 18465 18653 18798 18846 18893 18939 19024 19229 19355 19685 19847 19877 19961 20020 20067 20090 20183 20211 20136 20147 20125 20081 19954 19915 19955 19926 19891 19809 19767 19662 19617 19629 19705 19650 19598 19434 19283 19162 19004 18938 18942 18678 18514 18380 18321 18110 17976 17842 17646 17470 17193 17214 17186 17228 17166 17044 16956 16919 16969 16846 16827 16867 16822 16754 16789 16767 16701 16890 16993 17018 17180 17277 17295 17294 17349 17414 17419 17372 17362 17400 17507 17444 17536 17433 17398 17333 17261 17241 17221 17250 17382 17257 17268 17278 17248 17249 17190 17416 17548 17406 17258 17207 17140 17061 16920 16854 16769 16606 16467 16327 16332 16107 15923 15802 15709 15651 15503 15595 15636 15632 15656 15549 15570 15570 15512 15444 15334 15337 15379 15430 15422 15337 15190 15287 15241 15228 15147 14964 14830 14830 14851 14786 14788 14828 14938 14999 14984
16696 16888 16961 17112 17155 17160 17261 17422 17514 17548 17583 17709 17867 18079 18177 18215 18207 18197 18254 18323 18334 18315 18190 18235 18172 18152 18187 18159 18205 18304 18376 18603 18779 18502 18214 18052 17815 17736 17611 17664 17628 17597 17489 17344 17156 16962 16772 16654 16518 16434 16433 16303 16092 16106 16061 16020 15996 16062 16013 16155 16297 16232 16241 16168 16129 16200 16149 16121 16068 16143 16347 16303 16261 16364 16366 16441 16448 16360 16388 16272 16236 16362 16444 16369 16348 16375 16423 16366 16360 16329 16366 16398 16448 16491 16551 16531 16498 16680 16899 17020 17061 17112 17117 17276 17380 17594 17756 17880 18094 18333 18579 18792 18976 18903 18936 18965 19079 19190 19409 19697 19971 20016 19975 19983 20050 20090 20117 20177 20223 20155 20073 20104 20018 19990 20040 19981 19902 19904 19891 19802 19639 19674 19837 19696 19640 19566 19379 19233 19132 19103 18985 18821 18588 18445 18331 18232 18036 17884 17683 17519 17301 17328 17309 17353 17324 17179 17088 17097 16999 16969 16927 16994 16984 17018 16961 16859 16847 17069 17212 17221 17335 17472 17584 17604 17579 17625 17671 17658 17536 17537 17646 17742 17823 17655 17582 17558 17456 17359 17359 17389 17439 17425 17419 17440 17434 17455 17411 17633 17739 17677 17554 17474 17290 17204 17130 16951 16787 16694 16507 16423 16413 16268 16068 16040 15964 15822 15763 15850 15827 15875 15807 15731 15632 15639 15624 15535 15388 15444 15540 15489 15410 15352 15266 15294 15265 15257 15181 14953 14848 14863 14880 14868 14906 14941 14935 14975 15052
16675 16807 16960 17133 17196 17134 17236 17352 17491 17574 17549 17725 17801 17936 18039 18130 18289 18175 18194 18254 18315 18208 18171 18125 18197 18168 18138 18170 18206 18248 18360 18545 18721 18497 18275 18032 17807 17703 17580 17657 17564 17545 17484 17354 17152 17006 16853 16629 16518 16452 16519 16362 16172 16148 16154 16124 16084 16076 16074 16251 16368 16344 16367 16352 16317 16333 16379 16289 16314 16451 16483 16433 16449 16500 16520 16507 16593 16576 16541 16456 16293 16433 16529 16490 16510 16447 16444 16455 16466 16415 16504 16475 16537 16583 16520 16617 16686 16835 17070 17193 17275 17347 17307 17362 17469 17714 17923 18114 18221 18365 18613 18766 18984 19027 19097 19175 19199 19342 19481 19692 19958 20023 20095 20138 20163 20187 20247 20234 20352 20268 20254 20192 20033 20112 20092 20021 20017 19968 20006 19853 19820 19801 19932 19866 19840 19698 19505 19419 19343 19127 19016 18844 18657 18531 18303 18160 18026 17879 17801 17619 17415 17429 17466 17473 17407 17321 17346 17331 17240 17163 17120 17177 17142 17051 17085 16983 16998 17264 17338 17429 17450 17646 17755 17844 17891 17863 17800 17795 17698 17853 17873 17934 18035 17883 17838 17767 17715 17612 17559 17533 17594 17687 17611 17591 17497 17536 17612 17699 17831 17738 17611 17511 17450 17362 17232 17060 16821 16698 16596 16654 16578 16508 16322 16333 16214 16148 16159 16113 15978 16022 15912 15904 15829 15794 15687 15583 15461 15588 15569 15592 15496 15487 15354 15281 15340 15261 15201 15045 14902 14946 14930 14910 15009 15014 14995 14989 14976
16550 16643 16833 17025 17117 17195 17244 17378 17436 17476 17526 17698 17804 17903 17940 18046 18273 18191 18206 18236 18224 18104 18091 18084 18122 18200 18166 18170 18214 18294 18369 18533 18693 18452 18323 18057 17906 17794 17637 17635 17587 17579 17501 17402 17207 17087 16879 16723 16537 16579 16528 16492 16377 16360 16324 16163 16053 16128 16123 16316 16421 16404 16399 16472 16471 16570 16558 16528 16575 16641 16671 16678 16635 16656 16572 16671 16685 16659 16618 16494 16365 16461 16566 16628 16617 16529 16545 16583 16533 16607 16648 16645 16577 16602 16600 16677 16819 16974 17165 17365 17475 17464 17547 17554 17647 17963 18181 18302 18468 18538 18730 18861 19004 19049 19199 19272 19286 19431 19621 19755 19926 20066 20144 20179 20227 20247 20307 20413 20471 20484 20393 20318 20163 20136 20222 20206 20193 20189 20170 20015 19922 19929 20040 20057 19961 19736 19609 19535 19438 19150 18942 18801 18619 18468 18358 18135 18037 17984 17817 17717 17507 17544 17661 17561 17581 17516 17482 17475 17373 17372 17279 17326 17285 17170 17164 17200 17263 17416 17481 17480 17509 17670 17931 18047 18133 18081 18010 18021 17960 18132 18194 18148 18203 18074 18070 17983 17875 17839 17855 17799 17865 17880 17872 17762 17687 17711 17753 17841 17915 17825 17724 17647 17635 17422 17218 17035 16921 16886 16762 16782 16721 16614 16531 16590 16563 16467 16437 16283 16090 16085 16146 16054 16007 15894 15822 15736 15660 15750 15721 15702 15611 15508 15405 15390 15383 15265 15116 15057 15056 15001 14971 15006 15092 14977 14948 14958 14983
16484 16648 16765 16873 17045 17124 17140 17285 17318 17402 17358 17584 17695 17801 17915 18093 18255 18251 18184 18247 18247 18126 17996 17933 17962 18072 18132 18135 18195 18230 18233 18399 18580 18477 18287 18083 17944 17779 17732 17671 17709 17591 17567 17322 17180 17099 16897 16768 16569 16573 16656 16601 16462 16405 16394 16274 16143 16287 16370 16438 16533 16506 16604 16657 16676 16592 16516 16544 16588 16561 16670 16746 16715 16677 16581 16643 16771 16706 16521 16440 16470 16498 16580 16652 16630 16645 16762 16752 16735 16704 16759 16664 16684 16733 16913 16893 17030 17153 17294 17495 17701 17637 17716 17743 17804 18093 18252 18416 18673 18686 18822 18966 19149 19249 19457 19501 19587 19618 19751 19904 20055 20214 20218 20242 20322 20346 20407 20448 20566 20574 20511 20408 20310 20356 20318 20330 20324 20235 20307 20179 20024 20055 20189 20210 20176 20032 19786 19725 19622 19335 19195 19081 18897 18716 18462 18309 18151 18124 18011 17875 17816 17839 17903 17853 17868 17854 17784 17702 17599 17639 17721 17635 17690 17623 17657 17678 17648 17706 17790 17874 17838 17967 18123 18171 18233 18185 18146 18094 18153 18236 18244 18336 18347 18263 18281 18108 18079 18036 18052 18032 17961 17988 18018 17946 17921 17942 17948 17963 17997 17909 17900 17910 17816 17687 17567 17276 17119 16996 16929 16845 16871 16810 16736 16782 16725 16685 16601 16400 16281 16290 16247 16129 16079 15968 15962 15848 15802 15852 15828 15723 15625 15570 15507 15578 15553 15398 15199 15218 15128 15180 15198 15151 15193 15126 14998 14931 14960
16402 16558 16702 16816 16918 16962 17018 17065 17156 17276 17293 17465 17571 17693 17901 17994 18147 18167 18069 18148 18208 18092 17945 17866 17903 17899 18014 18059 18091 18120 18087 18290 18374 18375 18254 18143 17984 17846 17778 17708 17749 17707 17560 17342 17243 16984 16807 16744 16586 16603 16743 16670 16614 16453 16361 16257 16161 16364 16514 16560 16710 16740 16788 16800 16772 16726 16594 16615 16571 16581 16567 16670 16733 16635 16636 16736 16847 16762 16551 16466 16449 16509 16565 16645 16749 16781 16900 17032 17041 16964 16946 16800 16780 16880 17104 17081 17156 17262 17485 17677 17812 17905 17975 17960 18064 18265 18379 18633 18820 18865 18887 19083 19195 19419 19615 19774 19812 19816 19845 20056 20164 20289 20318 20403 20494 20559 20547 20614 20576 20605 20656 20592 20552 20594 20533 20509 20373 20341 20395 20288 20243 20306 20269 20265 20385 20213 19947 19872 19720 19584 19346 19263 19119 18891 18659 18474 18360 18222 18200 18181 18057 18126 18076 18111 18038 18094 18096 18067 17951 17948 18067 18046 18105 18150 18121 18039 17924 17991 18066 18184 18238 18271 18209 18351 18415 18337 18370 18314 18373 18383 18374 18382 18508 18477 18441 18299 18157 18132 18226 18185 18085 18170 18146 18095 18066 18016 18076 18189 18198 18140 18195 18190 18088 17903 17813 17563 17350 17258 17110 17006 16968 16878 16917 16831 16818 16775 16680 16614 16441 16377 16300 16291 16158 16080 16104 16033 15949 15854 15869 15712 15641 15670 15628 15728 15797 15589 15411 15351 15292 15255 15307 15293 15216 15199 15127 14994 14934
16365 16494 16568 16709 16803 16859 16970 17044 17116 17226 17272 17315 17478 17572 17785 17989 18195 18180 18144 18189 18166 18061 17969 17897 17956 17988 17998 18082 18035 18117 18041 18163 18299 18357 18245 18132 18127 18030 17909 17838 17751 17603 17475 17329 17190 16962 16849 16674 16597 16696 16737 16743 16723 16601 16506 16322 16268 16472 16516 16547 16665 16669 16738 16812 16870 16777 16680 16722 16685 16739 16699 16711 16681 16696 16640 16700 16869 16814 16662 16645 16544 16530 16610 16707 16716 16821 17031 17081 17209 17137 17070 16963 16953 17049 17197 17297 17352 17544 17696 17766 17919 18085 18098 18112 18199 18440 18614 18779 18918 18958 19026 19217 19321 19529 19736 19914 19981 19988 20067 20183 20234 20419 20451 20430 20542 20592 20579 20638 20720 20752 20730 20692 20687 20702 20539 20571 20454 20534 20494 20544 20470 20378 20400 20406 20453 20353 20078 20012 19938 19807 19598 19421 19304 19039 18854 18678 18472 18434 18318 18249 18181 18277 18290 18296 18285 18299 18418 18449 18371 18288 18415 18381 18463 18426 18485 18391 18295 18333 18401 18504 18489 18488 18405 18485 18468 18546 18558 18494 18472 18542 18487 18519 18548 18524 18471 18340 18211 18294 18272 18276 18300 18264 18310 18269 18239 18306 18230 18303 18439 18312 18300 18263 18205 18081 17981 17802 17632 17513 17372 17236 17078 17035 17067 16925 16809 16788 16783 16658 16598 16510 16489 16380 16240 16262 16246 16159 16026 15912 15862 15808 15832 15887 15828 15865 15864 15672 15645 15537 15408 15379 15344 15288 15224 15123 15050 14914 14841
16328 16409 16522 16614 16687 16774 16882 16941 17059 17235 17294 17268 17363 17538 17798 17994 18122 18106 18205 18220 18118 18059 18056 17964 17888 17869 17934 18031 18056 18072 18028 18111 18210 18287 18293 18237 18196 18045 17965 17844 17806 17570 17460 17395 17248 17026 16872 16722 16624 16662 16764 16770 16858 16735 16605 16509 16494 16570 16623 16637 16747 16717 16789 16809 16847 16766 16691 16671 16690 16765 16720 16739 16750 16675 16713 16766 16897 16755 16740 16689 16573 16703 16726 16789 16783 16937 17105 17169 17330 17228 17195 17246 17188 17319 17374 17481 17570 17691 17922 17957 18069 18205 18344 18341 18428 18590 18764 18844 19032 19120 19210 19301 19374 19577 19748 19977 20138 20218 20184 20246 20399 20488 20517 20538 20626 20613 20697 20736 20884 20940 20880 20881 20796 20754 20668 20658 20647 20644 20698 20711 20604 20531 20489 20588 20628 20431 20304 20170 20137 20046 19892 19657 19453 19249 19032 18897 18638 18497 18385 18403 18354 18421 18387 18514 18634 18650 18666 18732 18731 18638 18661 18703 18790 18834 18817 18692 18637 18706 18734 18782 18829 18752 18676 18666 18625 18705 18764 18707 18686 18602 18639 18672 18673 18660 18595 18526 18345 18393 18415 18368 18398 18502 18568 18565 18531 18498 18460 18555 18571 18565 18484 18437 18436 18230 18121 18092 17950 17780 17514 17339 17145 17070 17097 16962 16873 16948 16940 16809 16794 16652 16578 16442 16361 16359 16278 16137 16028 15958 15905 15958 15912 15966 16057 16086 15989 15841 15756 15667 15529 15407 15325 15354 15333 15072 14912 14827 14710
16256 16348 16511 16668 16771 16789 16859 16919 16973 17213 17338 17306 17398 17544 17673 17837 17977 18020 18136 18074 18117 18102 18060 18007 17962 17916 17919 18000 18190 18115 18115 18204 18228 18305 18330 18223 18213 18118 17980 17854 17841 17605 17490 17429 17226 17021 16966 16820 16729 16698 16799 16811 16920 16845 16695 16650 16609 16635 16749 16810 16793 16748 16813 16862 16965 16887 16858 16866 16770 16799 16824 16752 16805 16848 16752 16834 16880 16839 16789 16714 16581 16726 16805 16814 16881 17099 17273 17350 17515 17513 17485 17395 17425 17523 17607 17709 17707 17924 18117 18309 18437 18474 18590 18591 18571 18731 18970 19079 19285 19284 19348 19368 19489 19725 19827 19943 20223 20354 20390 20440 20558 20645 20623 20755 20760 20817 20770 20844 20853 20941 20867 20877 20858 20877 20834 20792 20862 20885 20831 20726 20597 20560 20668 20704 20831 20617 20534 20441 20276 20120 20065 19745 19550 19428 19148 19083 18878 18645 18516 18492 18522 18689 18680 18858 18929 18853 18878 18911 19001 19044 18992 18960 19055 18948 18959 18977 18871 18933 18990 19134 19106 19033 18881 18869 18860 18867 18859 18808 18771 18805 18845 18777 18739 18725 18610 18614 18589 18550 18581 18656 18624 18699 18676 18651 18686 18601 18592 18583 18571 18591 18571 18569 18529 18350 18244 18179 18049 17844 17716 17564 17271 17269 17281 17145 17002 17050 17157 17013 16908 16786 16698 16533 16449 16413 16366 16330 16210 16209 16157 16072 16085 16120 16122 16080 16094 15969 15802 15736 15690 15501 15427 15437 15411 15186 14958 14854 14706
16288 16439 16481 16661 16736 16799 16940 17034 17003 17092 17289 17320 17417 17397 17483 17652 17814 17870 18009 18018 18038 18099 18077 18028 17910 17905 17957 18105 18211 18237 18271 18207 18230 18311 18298 18277 18148 18083 17915 17870 17941 17741 17648 17479 17207 17020 16939 16839 16797 16743 16772 16837 16913 16939 16892 16829 16835 16864 16803 16813 16837 16924 16937 16940 16997 16966 16915 16951 16916 16896 16808 16868 16934 16918 16814 16907 16975 16916 16811 16703 16632 16718 16801 16896 17073 17263 17397 17534 17714 17669 17707 17674 17742 17789 17952 17929 17958 18166 18425 18515 18719 18756 18766 18779 18785 19050 19208 19288 19418 19488 19488 19546 19716 19772 19884 19989 20219 20477 20628 20684 20737 20806 20756 20876 20910 20903 20921 20933 20950 20927 20936 20988 20951 20957 20921 20937 21026 21005 20942 20811 20676 20687 20778 20841 20918 20776 20657 20535 20463 20322 20210 19918 19700 19557 19294 19197 19055 18902 18759 18752 18799 18920 18979 19187 19270 19209 19214 19213 19337 19328 19280 19282 19231 19141 19156 19216 19199 19241 19366 19421 19360 19266 19200 19087 19018 19004 18947 18864 18869 18889 18950 18873 18805 18751 18729 18775 18781 18869 18850 18893 18917 18840 18825 18839 18819 18756 18797 18765 18685 18733 18670 18607 18556 18451 18332 18194 18139 18014 17922 17729 17512 17450 17354 17322 17168 17154 17252 17195 17142 16972 16842 16738 16549 16554 16491 16414 16302 16296 16302 16197 16159 16193 16189 16155 16215 16148 15976 15828 15796 15641 15531 15491 15383 15216 15058 14922 14713
16404 16448 16572 16598 16698 16811 16931 16886 16899 17017 17175 17262 17355 17410 17395 17562 17687 17748 17959 18015 17973 18056 18020 17935 17874 17954 18063 18221 18257 18177 18149 18138 18186 18209 18328 18257 18219 18086 18003 17947 17980 17776 17561 17443 17249 17159 17143 17053 16959 16960 16861 16948 17031 17031 17024 16909 16872 16968 16893 16877 16963 17021 16984 16990 17067 17097 17070 17108 17114 16962 16967 17047 17060 16997 17006 16993 16889 16820 16757 16667 16602 16748 16876 17048 17125 17371 17440 17662 17754 17765 17810 17865 17958 18050 18120 18237 18269 18474 18671 18760 18933 19001 19035 19019 18971 19263 19445 19534 19643 19699 19734 19837 19975 20012 20166 20268 20436 20629 20790 20791 20855 20896 20795 20956 20950 20951 20936 20934 20972 20957 21023 21006 21029 21116 21130 21190 21220 21092 20999 20990 20842 20804 20908 20921 21034 20863 20718 20676 20607 20383 20288 20063 19803 19598 19467 19301 19225 19069 18983 19073 19100 19091 19186 19392 19432 19413 19501 19438 19569 19444 19487 19423 19430 19310 19365 19477 19513 19567 19675 19613 19561 19426 19357 19303 19191 19105 19120 19071 19137 19091 18968 18839 18829 18862 18757 18907 18960 19007 19015 19138 19133 19151 19135 19121 19044 19003 18891 18903 18861 18909 18855 18720 18703 18615 18491 18406 18299 18127 18022 17861 17775 17657 17527 17435 17381 17455 17418 17399 17287 17156 16942 16752 16634 16657 16543 16578 16460 16454 16400 16257 16187 16255 16230 16229 16223 16196 16102 15967 15918 15802 15589 15539 15450 15218 15102 15007 14752
16432 16467 16556 16692 16714 16786 16804 16904 16883 16990 17179 17225 17297 17382 17374 17494 17646 17710 17785 17858 17868 17984 17983 18027 17953 18130 18198 18276 18229 18209 18143 18175 18147 18157 18276 18210 18192 18106 18052 17931 17895 17760 17587 17525 17406 17365 17276 17127 17032 17061 17066 17125 17070 17162 17136 17126 17017 17076 17068 17057 17106 17098 17061 17178 17225 17202 17210 17188 17190 17084 17060 17055 17119 17116 17106 17029 16924 16925 16803 16729 16615 16734 16979 17057 17233 17420 17558 17683 17919 17908 18023 18110 18199 18283 18402 18547 18571 18684 18842 19004 19159 19178 19311 19328 19240 19479 19614 19631 19765 19862 20025 20052 20184 20209 20344 20407 20548 20747 20904 20939 21059 20975 20950 20970 21005 20985 20846 20883 20940 21020 21006 21131 21139 21261 21346 21284 21302 21166 21123 21121 20995 20958 20964 21049 21131 21014 20822 20704 20690 20434 20302 20129 19839 19703 19628 19554 19378 19377 19296 19364 19343 19381 19420 19539 19653 19671 19762 19688 19690 19579 19596 19563 19539 19523 19600 19726 19847 19881 19905 19895 19838 19693 19591 19487 19319 19294 19237 19242 19298 19143 19023 18939 18771 18894 18912 18924 19027 19039 19074 19270 19363 19302 19319 19220 19155 19091 19096 19009 19035 18966 18929 18863 18883 18775 18731 18652 18550 18384 18235 18104 17932 17846 17801 17661 17647 17622 17599 17461 17338 17221 17101 16922 16825 16787 16721 16663 16683 16614 16531 16459 16304 16336 16374 16300 16284 16251 16147 16039 15997 15882 15667 15568 15578 15345 15196 15037 14805
16585 16631 16636 16695 16704 16822 16805 16853 16970 17067 17162 17262 17290 17280 17378 17488 17699 17791 17853 17874 17905 18037 18066 18016 17955 18092 18153 18205 18238 18160 18118 18084 18136 18090 18129 18154 18135 18051 18073 18016 17956 17763 17618 17491 17504 17480 17439 17263 17194 17248 17288 17204 17056 17121 17175 17232 17127 17181 17179 17235 17321 17328 17337 17306 17297 17213 17230 17219 17223 17175 17155 17155 17161 17114 17190 17106 17062 17017 16967 16894 16774 16997 17222 17247 17471 17658 17769 17893 18116 18221 18294 18320 18459 18492 18590 18582 18594 18756 18874 18984 19078 19178 19328 19322 19317 19404 19570 19657 19784 19933 20105 20190 20323 20269 20399 20503 20580 20801 20935 20957 20933 20875 20936 20974 20994 20893 20787 20823 20742 20877 20952 21094 21157 21317 21352 21410 21419 21306 21167 21104 21036 21039 20971 21003 21031 20863 20762 20735 20694 20537 20394 20181 20007 19885 19829 19695 19637 19594 19597 19569 19525 19570 19637 19678 19750 19864 19959 19806 19804 19839 19762 19776 19752 19839 19859 19971 19979 19963 19970 19884 19891 19726 19613 19621 19501 19407 19437 19311 19345 19210 19087 19044 18819 18860 18950 18918 18954 19017 19103 19325 19374 19455 19441 19334 19262 19243 19223 19101 19107 19020 18982 18998 18958 18987 18905 18798 18740 18605 18413 18306 18317 18200 18002 17919 17824 17744 17805 17613 17475 17283 17168 17053 16965 16981 16882 16796 16767 16783 16739 16665 16547 16493 16370 16310 16276 16289 16243 16129 16101 15928 15765 15741 15592 15433 15262 15114 14964
16667 16704 16689 16806 16815 16758 16809 16920 16954 17030 17221 17277 17230 17210 17314 17475 17648 17798 17859 17862 17883 17983 18051 18054 18084 18024 18071 18102 18142 18154 18059 18111 18083 18068 18069 18150 18160 18133 18143 18029 17966 17814 17578 17535 17545 17529 17580 17488 17396 17357 17414 17299 17152 17272 17287 17299 17276 17372 17404 17445 17478 17561 17520 17498 17443 17289 17232 17184 17173 17131 17155 17161 17110 17122 17184 17159 17118 17042 17072 17047 17032 17166 17343 17429 17604 17820 17922 18027 18232 18437 18529 18575 18629 18625 18739 18715 18686 18700 18796 18912 18905 19118 19237 19238 19332 19423 19553 19697 19731 19897 20064 20248 20377 20347 20392 20497 20596 20802 20920 20932 20856 20836 20899 20923 21006 20862 20836 20766 20669 20822 20984 21140 21236 21351 21365 21425 21454 21268 21108 21109 21078 21087 21026 21032 20954 20849 20716 20731 20641 20568 20472 20235 20087 19974 19969 19918 19816 19891 19847 19814 19836 19771 19737 19881 19933 19991 20046 19990 20020 19964 19903 19943 19913 20020 20025 20098 20167 20145 20104 19907 19827 19704 19616 19635 19575 19488 19528 19371 19268 19193 19193 19083 18944 18924 18946 18941 18905 19114 19242 19320 19416 19465 19476 19471 19445 19368 19415 19266 19144 19081 18984 18970 18968 19062 19083 19033 18870 18805 18718 18632 18589 18404 18250 18081 17987 17913 17910 17739 17629 17432 17266 17187 17124 17090 16961 16874 16903 16838 16849 16708 16691 16597 16455 16412 16345 16280 16331 16283 16250 16051 15924 15823 15662 15557 15345 15241 15222
16698 16689 16780 16849 16836 16761 16802 16940 16914 17092 17250 17228 17326 17404 17469 17559 17641 17752 17911 17894 17906 18059 18093 18156 18177 18103 18140 17988 18014 17964 17983 18020 17952 18041 17952 18073 18102 18124 18120 18024 17935 17731 17616 17553 17490 17553 17702 17615 17531 17524 17538 17449 17287 17359 17430 17367 17405 17495 17562 17540 17522 17658 17601 17559 17390 17319 17404 17388 17283 17247 17220 17212 17151 17169 17126 17138 17173 17217 17211 17147 17124 17279 17451 17666 17698 17982 18138 18287 18397 18516 18732 18744 18760 18776 18713 18729 18654 18663 18716 18795 18898 19085 19209 19226 19308 19403 19577 19675 19844 19963 20091 20234 20388 20413 20448 20565 20662 20784 20924 20924 20870 20890 20965 20935 21032 20947 20815 20674 20608 20849 20985 21124 21153 21233 21402 21398 21465 21311 21155 21026 20996 21133 21098 21052 20933 20844 20700 20588 20521 20444 20416 20240 20100 20130 20153 20105 20084 20070 20155 20079 19981 19923 19996 20161 20184 20256 20175 20220 20150 20136 20158 20108 20083 20129 20164 20152 20168 20138 20079 19988 19890 19842 19738 19704 19697 19642 19554 19437 19373 19291 19265 19058 19008 19027 18997 18920 18940 19070 19208 19279 19310 19403 19451 19438 19578 19517 19428 19287 19299 19255 19159 19094 19044 19197 19215 19165 19026 19057 18959 18892 18842 18669 18610 18414 18248 18190 18199 17959 17793 17670 17498 17424 17288 17280 17183 17003 16974 16970 16941 16856 16871 16806 16658 16515 16427 16332 16332 16354 16220 16101 16027 15782 15699 15561 15460 15408 15274
16825 16765 16813 16860 16795 16806 16774 16921 16967 17117 17210 17240 17324 17429 17498 17647 17736 17827 17967 17973 18026 18151 18195 18203 18146 18105 18084 17926 17894 17853 17849 17879 17914 17994 17950 17960 18076 18094 18077 17965 17835 17696 17577 17539 17530 17613 17764 17729 17747 17619 17557 17429 17340 17415 17477 17577 17627 17692 17775 17747 17672 17720 17659 17506 17441 17430 17481 17453 17386 17316 17319 17246 17270 17222 17160 17176 17250 17354 17335 17318 17329 17442 17675 17844 17898 18119 18261 18371 18599 18709 18812 18798 18823 18833 18793 18679 18590 18596 18701 18759 18836 18950 19172 19248 19295 19424 19663 19728 19869 19944 20038 20263 20388 20451 20515 20649 20732 20724 20840 20904 20891 20964 20982 20972 20945 20838 20717 20615 20478 20734 20891 21003 21102 21280 21335 21346 21394 21213 21102 21079 21032 21107 21068 20975 20969 20878 20715 20615 20470 20403 20448 20272 20194 20222 20336 20385 20364 20302 20339 20249 20175 20199 20190 20341 20440 20465 20413 20376 20352 20411 20357 20399 20358 20385 20432 20362 20285 20165 20109 20094 20066 20020 19967 19910 19812 19715 19665 19468 19398 19371 19224 19060 19010 19063 19099 19011 18940 18989 19151 19160 19270 19256 19360 19511 19615 19577 19475 19365 19355 19248 19228 19235 19189 19288 19310 19311 19280 19234 19277 19201 19042 18948 18846 18728 18568 18491 18378 18218 17996 17780 17670 17595 17448 17433 17302 17216 17016 17006 17004 16958 16942 16897 16813 16748 16562 16480 16401 16339 16263 16141 16017 15796 15696 15633 15621 15463 15401
16882 16737 16752 16876 16896 16928 16803 16915 17062 17114 17207 17268 17340 17384 17501 17634 17815 17890 18013 17998 18086 18174 18216 18180 18232 18092 18020 18030 17957 17925 17922 17841 17780 17845 17839 17892 18025 17987 17983 17837 17810 17722 17701 17531 17519 17596 17665 17755 17796 17658 17625 17518 17508 17547 17620 17780 17857 17812 17764 17799 17736 17779 17742 17689 17582 17604 17534 17485 17445 17477 17393 17383 17351 17365 17316 17347 17350 17387 17344 17382 17476 17634 17876 17986 18009 18187 18446 18600 18672 18779 18748 18746 18816 18792 18772 18723 18720 18689 18646 18750 18886 19087 19239 19294 19444 19512 19722 19762 19838 19974 20140 20253 20361 20394 20510 20532 20641 20717 20735 20820 20918 20978 20875 20856 20881 20735 20612 20578 20554 20734 20830 20925 21078 21153 21236 21304 21312 21196 21139 21152 21102 21046 21035 20896 20873 20787 20766 20710 20533 20460 20481 20379 20250 20387 20467 20424 20447 20382 20424 20308 20308 20326 20257 20338 20517 20586 20559 20525 20572 20527 20478 20447 20503 20480 20443 20367 20407 20308 20254 20238 20150 20067 20073 19963 19846 19803 19750 19608 19519 19431 19320 19222 19080 19038 19089 19113 19084 19101 19177 19297 19373 19412 19466 19626 19667 19590 19451 19441 19539 19487 19412 19466 19439 19503 19518 19457 19509 19396 19385 19355 19160 19018 18997 18869 18759 18636 18532 18310 18118 17948 17866 17802 17662 17522 17379 17215 17132 17160 17169 17099 16985 16938 16878 16711 16565 16549 16475 16412 16435 16242 16211 16090 15916 15793 15750 15558 15453
16828 16740 16774 16913 17042 17002 16960 17010 17055 17128 17184 17236 17384 17426 17544 17633 17821 17924 17994 18037 18096 18179 18142 18223 18273 18171 18071 18118 18073 18039 17965 17865 17751 17781 17753 17799 17921 17994 17959 17826 17741 17682 17733 17615 17514 17630 17632 17684 17810 17826 17729 17673 17715 17670 17717 17839 17973 17877 17794 17780 17805 17837 17879 17800 17763 17656 17538 17579 17598 17562 17583 17445 17421 17432 17426 17396 17382 17410 17434 17500 17560 17768 18010 18123 18134 18422 18630 18720 18844 18836 18739 18867 18921 18889 18804 18762 18771 18671 18694 18884 18976 19213 19373 19409 19541 19561 19706 19748 19841 20047 20182 20308 20312 20384 20445 20503 20511 20520 20655 20905 21049 20915 20863 20776 20808 20712 20616 20607 20540 20626 20784 20896 21054 21064 21083 21241 21311 21164 21091 21167 21211 21047 20921 20934 20826 20864 20863 20737 20671 20626 20618 20501 20369 20503 20545 20441 20459 20432 20461 20412 20385 20355 20430 20488 20648 20572 20605 20676 20707 20703 20695 20615 20615 20485 20439 20380 20444 20378 20372 20319 20210 20188 20202 20085 19901 19826 19770 19623 19576 19497 19426 19182 19065 19046 19107 19160 19145 19225 19216 19307 19395 19516 19650 19697 19651 19557 19492 19571 19673 19560 19530 19630 19619 19702 19738 19713 19657 19596 19565 19477 19279 19208 19208 19026 18960 18835 18660 18430 18205 18054 17984 17935 17902 17698 17545 17385 17198 17251 17211 17141 17004 16943 16955 16845 16617 16551 16488 16535 16557 16422 16350 16265 16103 16014 15936 15790 15565
16831 16752 16833 16962 17135 17147 17150 17151 17169 17255 17262 17307 17432 17453 17561 17693 17895 17954 18120 18198 18179 18214 18192 18263 18319 18245 18090 18178 18078 18083 18028 17892 17716 17771 17705 17797 17894 17887 17987 17848 17793 17744 17785 17683 17660 17648 17769 17859 17864 17879 17827 17802 17765 17908 17887 18002 18195 18040 17873 17910 17865 17888 17955 17895 17836 17721 17637 17658 17565 17646 17637 17545 17576 17565 17565 17549 17497 17564 17560 17668 17725 17857 18082 18239 18312 18479 18707 18826 18875 18812 18757 18855 19003 18941 18811 18755 18761 18700 18713 18812 19012 19262 19429 19477 19647 19689 19668 19770 19794 19954 20159 20267 20311 20389 20397 20475 20523 20534 20710 20852 21063 20945 20937 20767 20755 20660 20517 20509 20574 20662 20706 20825 20961 20943 21008 21145 21204 21165 21031 21100 21215 21026 20972 20924 20908 20901 20802 20694 20652 20604 20532 20508 20491 20518 20557 20537 20545 20552 20559 20489 20493 20586 20612 20556 20671 20667 20699 20773 20832 20803 20785 20740 20677 20575 20579 20572 20651 20509 20474 20476 20439 20275 20159 20110 19956 19913 19822 19755 19666 19551 19398 19216 19069 19120 19194 19202 19312 19362 19286 19456 19523 19669 19773 19680 19647 19571 19542 19644 19740 19730 19672 19677 19726 19764 19750 19765 19700 19587 19573 19489 19390 19321 19290 19152 19179 19029 18824 18577 18391 18326 18189 18179 18055 17811 17692 17458 17309 17260 17253 17219 17093 17021 16973 16879 16708 16633 16611 16690 16666 16546 16525 16427 16261 16194 16010 15858 15702
16794 16820 16907 17039 17207 17219 17232 17144 17164 17266 17258 17378 17438 17509 17671 17885 18084 18090 18173 18223 18235 18189 18197 18247 18340 18237 18231 18204 18212 18127 18018 17885 17759 17736 17720 17742 17829 17821 17918 17858 17874 17804 17730 17772 17699 17760 17881 17955 17985 18000 17976 17951 17923 18080 18138 18247 18322 18172 18035 17962 17962 17961 17934 17850 17859 17788 17642 17660 17568 17669 17707 17690 17732 17731 17670 17654 17694 17746 17728 17852 17912 18036 18171 18336 18517 18669 18823 18956 18987 18970 18869 18898 18989 18941 18861 18857 18770 18825 18819 18884 19070 19317 19532 19605 19794 19789 19683 19792 19798 20028 20140 20213 20289 20332 20300 20310 20421 20574 20719 20888 20978 20933 20888 20761 20631 20558 20547 20574 20491 20530 20549 20672 20752 20912 20974 20975 21066 21014 21073 21084 21149 21010 20926 20881 20917 20941 20841 20789 20642 20604 20553 20661 20684 20673 20644 20636 20735 20722 20718 20644 20634 20719 20709 20622 20663 20642 20745 20941 21015 20963 20798 20743 20714 20768 20711 20786 20766 20695 20685 20699 20599 20402 20230 20082 20007 19926 19778 19717 19766 19523 19351 19262 19118 19217 19237 19274 19357 19432 19456 19505 19615 19700 19771 19757 19713 19646 19650 19775 19812 19782 19835 19781 19845 19811 19866 19815 19829 19725 19579 19569 19469 19406 19366 19332 19303 19128 18976 18767 18553 18462 18408 18298 18185 17995 17749 17636 17540 17421 17409 17306 17266 17176 17081 16914 16822 16837 16813 16801 16815 16784 16757 16659 16543 16332 16163 16071 15886
16748 16834 16874 16987 17224 17233 17154 17194 17251 17223 17276 17405 17471 17551 17645 17837 18018 18012 18035 18070 18135 18189 18227 18261 18321 18280 18182 18141 18093 18071 17915 17790 17768 17769 17782 17926 18009 18045 18025 18031 17922 17963 17908 17910 17887 17956 18104 18098 18109 18059 18153 18098 18032 18157 18212 18284 18392 18261 18196 18087 18022 17983 18021 17996 17927 17876 17786 17875 17815 17799 17818 17834 17809 17794 17788 17848 17878 17874 17932 18012 17995 18057 18185 18347 18548 18674 18844 18991 19119 19078 19014 19037 19116 19043 19011 18984 18891 18930 18909 19058 19110 19366 19505 19597 19820 19702 19673 19832 19826 19954 20167 20158 20350 20382 20397 20324 20397 20554 20709 20753 20796 20764 20820 20750 20586 20593 20540 20478 20457 20494 20541 20641 20735 20877 21054 21036 21191 21142 21019 21123 21089 20959 20932 20933 20971 20946 20956 20864 20922 20814 20748 20779 20844 20827 20827 20861 20968 20876 20936 20880 20907 20961 20912 20832 20787 20796 20952 21066 21087 21088 20947 20875 20832 20929 20913 20940 20806 20763 20784 20703 20705 20534 20424 20262 20140 20092 20004 20007 19930 19723 19615 19419 19240 19356 19363 19443 19642 19610 19646 19695 19786 19767 19793 19793 19805 19754 19724 19818 19861 19820 19868 19820 19785 19803 19860 19905 19915 19823 19710 19634 19534 19554 19545 19389 19319 19158 18998 18781 18519 18433 18404 18235 18150 18042 17851 17639 17548 17513 17426 17377 17438 17312 17275 17065 16959 16925 16837 16846 16844 16808 16857 16765 16671 16450 16190 16108 15990
16721 16772 16806 16996 17136 17175 17187 17164 17221 17243 17338 17403 17573 17600 17686 17809 17875 17936 17987 18042 18125 18193 18327 18275 18290 18229 18060 18008 17936 17976 17905 17824 17862 17861 17864 18078 18179 18138 18049 18074 18060 18090 18113 18104 18146 18253 18268 18243 18193 18179 18232 18236 18218 18334 18371 18383 18382 18333 18348 18325 18188 18126 18118 18028 18028 18026 18054 18115 18116 18100 17970 17944 17980 17974 17978 17936 18006 18059 18124 18155 18108 18159 18260 18456 18534 18825 18993 19103 19254 19156 19117 19143 19270 19272 19238 19110 19047 19046 19059 19139 19254 19332 19461 19655 19827 19770 19767 19799 19893 19982 20135 20152 20294 20405 20428 20406 20461 20530 20643 20680 20727 20721 20792 20736 20637 20505 20501 20434 20366 20446 20606 20613 20665 20803 21019 21130 21194 21135 21064 21131 21082 21064 21057 21099 21119 21022 20983 21017 21106 21066 20957 21061 21075 21052 21121 21142 21221 21128 21121 21085 21169 21188 21209 21080 20960 21046 21202 21205 21244 21177 21022 20960 20864 20982 21098 21028 20958 20879 20814 20772 20822 20692 20576 20360 20241 20166 20193 20197 20201 19972 19837 19602 19385 19520 19615 19689 19820 19890 19889 19850 19903 19905 19931 19845 19831 19841 19766 19811 19893 19891 19830 19879 19849 19833 19924 19902 19890 19773 19746 19761 19708 19681 19623 19508 19367 19276 19130 18880 18610 18520 18396 18227 18060 18046 17934 17738 17513 17577 17538 17542 17554 17392 17343 17209 17117 16975 16910 16980 16929 16934 16916 16742 16695 16479 16346 16224 16159
16612 16732 16876 16953 17122 17069 17106 17079 17147 17310 17506 17613 17721 17752 17761 17888 17952 17946 17958 17957 17988 18109 18343 18381 18405 18172 18035 17994 17932 17855 17843 17815 17822 17878 17955 18129 18218 18232 18230 18235 18222 18313 18310 18335 18305 18396 18361 18306 18216 18237 18370 18337 18269 18376 18502 18558 18526 18479 18409 18377 18283 18247 18174 18135 18135 18180 18110 18153 18315 18174 18132 18105 18070 18153 18190 18128 18102 18103 18196 18144 18151 18310 18402 18591 18642 18832 19017 19209 19357 19319 19241 19328 19390 19375 19289 19125 19129 19161 19201 19222 19229 19398 19544 19755 19972 19972 19948 19910 19909 19945 20095 20150 20210 20235 20230 20264 20344 20477 20559 20595 20625 20720 20717 20723 20631 20546 20497 20552 20460 20563 20629 20713 20692 20818 20913 21042 21203 21078 20971 21030 21013 21025 21140 21147 21137 21092 21199 21214 21265 21184 21152 21197 21216 21311 21395 21317 21349 21408 21396 21352 21295 21394 21308 21278 21149 21289 21393 21377 21429 21319 21262 21214 21062 21174 21296 21288 21115 21068 21038 20979 20953 20894 20751 20654 20418 20436 20365 20337 20309 20165 19944 19747 19522 19646 19773 19885 19989 20011 19998 20049 20099 20174 20126 20058 19948 20002 19962 19978 19995 19884 19853 19893 19914 19943 19983 19958 19997 19950 19818 19835 19709 19638 19653 19541 19428 19373 19221 18997 18703 18494 18449 18260 18128 18100 17959 17845 17669 17598 17544 17619 17635 17515 17511 17360 17213 17106 17071 17030 16936 16977 16855 16710 16584 16453 16427 16276 16262
16606 16674 16834 17037 17118 17018 17033 17056 17195 17398 17562 17651 17780 17836 17787 17832 17921 17864 17924 17904 17933 18036 18257 18274 18416 18235 18077 17904 17832 17798 17849 17865 17829 17954 18039 18215 18325 18398 18407 18386 18471 18516 18486 18479 18547 18495 18527 18402 18353 18396 18410 18385 18327 18410 18560 18585 18694 18507 18403 18357 18332 18351 18329 18285 18366 18348 18276 18302 18437 18331 18276 18282 18242 18220 18323 18311 18319 18308 18245 18248 18308 18420 18529 18635 18732 18874 19127 19341 19482 19366 19368 19422 19449 19385 19402 19200 19109 19139 19276 19303 19262 19386 19557 19820 20024 20031 20105 20100 20045 20025 20065 20129 20077 20172 20151 20269 20356 20432 20419 20528 20592 20632 20624 20644 20599 20561 20549 20569 20494 20514 20660 20746 20723 20824 20919 20971 21089 21044 20882 20910 20899 20988 21102 21170 21113 21213 21349 21435 21472 21352 21336 21311 21363 21447 21544 21526 21587 21606 21628 21563 21493 21537 21523 21469 21329 21395 21532 21630 21634 21530 21485 21333 21230 21291 21431 21463 21391 21281 21261 21201 21015 20965 20970 20862 20674 20599 20571 20534 20520 20370 20169 19972 19743 19854 19941 20013 20032 20060 20098 20196 20324 20381 20321 20226 20108 20130 20164 20140 20060 19974 19962 19905 19901 19964 20082 20067 20106 20020 19852 19823 19755 19677 19686 19659 19576 19448 19267 19033 18714 18532 18391 18317 18177 18150 18064 17930 17740 17704 17653 17720 17702 17652 17564 17442 17373 17293 17141 17036 17001 16944 16830 16651 16598 16476 16462 16387 16360
16527 16574 16679 16917 17008 16982 17020 17068 17281 17382 17513 17594 17695 17802 17825 17893 17896 17914 17933 17941 17940 17978 18143 18195 18238 18167 18047 17923 17880 17819 17902 17903 17806 17834 18000 18175 18317 18394 18442 18441 18479 18462 18509 18570 18722 18599 18600 18530 18525 18460 18488 18582 18520 18531 18625 18732 18880 18813 18686 18591 18607 18528 18553 18524 18594 18554 18510 18553 18659 18631 18541 18592 18473 18443 18460 18463 18578 18509 18460 18431 18501 18637 18720 18837 18927 18996 19217 19361 19502 19512 19431 19499 19504 19517 19525 19362 19285 19207 19281 19409 19480 19521 19648 19811 19900 19946 20027 20065 20040 20025 20005 20039 19923 20028 20141 20241 20252 20362 20406 20541 20644 20668 20712 20737 20745 20724 20668 20584 20586 20638 20755 20761 20698 20803 20955 20991 21061 21007 20974 20995 20965 21013 21117 21144 21238 21378 21520 21528 21685 21615 21523 21416 21528 21618 21593 21624 21797 21871 21897 21806 21797 21755 21710 21663 21602 21677 21685 21777 21752 21652 21570 21454 21437 21413 21491 21611 21596 21518 21472 21345 21258 21195 21049 20964 20880 20848 20864 20734 20669 20526 20330 20146 19894 20068 20155 20132 20222 20317 20334 20404 20425 20454 20573 20422 20270 20264 20311 20240 20287 20143 20132 20066 20024 20093 20253 20197 20272 20203 20054 19917 19841 19837 19878 19841 19654 19565 19422 19100 18851 18754 18545 18449 18183 18169 18088 17996 17869 17810 17787 17849 17750 17798 17727 17510 17460 17400 17242 17195 17040 16976 16902 16833 16741 16656 16489 16406 16321
16391 16522 16647 16768 16965 16940 16985 17085 17254 17270 17374 17507 17609 17728 17800 17897 17923 17936 17945 17941 17932 18033 18047 18073 18185 18097 17991 17954 17868 17886 17918 17844 17726 17798 17956 18127 18211 18305 18383 18441 18607 18588 18598 18760 18885 18833 18739 18774 18734 18656 18661 18721 18680 18721 18778 18879 19053 18999 18907 18834 18776 18806 18842 18802 18704 18759 18846 18825 18893 18922 18881 18820 18822 18793 18656 18720 18773 18762 18772 18713 18640 18818 18909 18964 19038 19136 19359 19504 19580 19562 19482 19566 19565 19584 19652 19491 19379 19349 19370 19474 19589 19675 19737 19730 19838 19952 19972 19956 20008 19936 19957 19875 19872 20017 20103 20191 20244 20370 20446 20648 20736 20757 20834 20864 20769 20672 20691 20687 20748 20779 20812 20744 20761 20815 20938 20939 20958 20983 21084 21107 21066 21205 21221 21239 21347 21524 21657 21729 21778 21699 21596 21518 21569 21674 21677 21758 21897 22000 22105 22117 22034 21953 21934 21894 21870 21865 21796 21826 21820 21813 21711 21600 21574 21651 21602 21748 21865 21780 21690 21646 21551 21382 21230 21125 21104 21081 21046 20947 20932 20673 20417 20236 20156 20204 20267 20368 20390 20493 20543 20501 20552 20682 20705 20574 20548 20589 20554 20479 20408 20317 20293 20217 20262 20358 20337 20345 20383 20308 20191 20144 20028 20063 20056 19992 19850 19720 19517 19284 18998 18886 18705 18550 18312 18161 18125 18101 18095 17999 17936 17896 17901 17884 17777 17605 17469 17412 17412 17322 17184 16988 16880 16820 16799 16695 16466 16367 16348
16368 16595 16775 16925 17001 17028 16966 17046 17266 17354 17430 17463 17549 17712 17702 17823 17837 17829 17925 17900 17967 17998 18061 18066 18134 18000 17949 17920 17868 17891 17893 17730 17672 17872 18060 18161 18236 18358 18366 18449 18545 18594 18694 18830 18877 18919 18799 18902 18818 18886 18851 18851 18881 18906 19075 19181 19231 19141 19052 19119 19052 18975 19019 19004 18943 19013 19007 19024 19141 19074 19093 19070 18944 18891 18852 18875 18910 18961 18980 18940 18855 19002 19218 19204 19308 19319 19438 19530 19512 19483 19518 19684 19709 19798 19823 19669 19623 19635 19576 19646 19742 19732 19666 19744 19824 19856 19975 19919 19984 19920 19928 19921 19951 20013 19970 20111 20198 20277 20403 20540 20704 20774 20833 20854 20817 20831 20791 20819 20739 20797 20754 20810 20814 20827 20847 20930 20953 20913 21016 21032 21148 21291 21336 21431 21506 21663 21698 21817 21899 21905 21865 21740 21739 21801 21758 21835 21987 22111 22281 22295 22382 22264 22239 22252 22134 22070 22004 22041 22059 21996 22008 21964 21843 21855 21786 21890 21943 21904 21955 21924 21786 21597 21534 21502 21436 21370 21338 21217 21118 20812 20640 20394 20277 20263 20319 20525 20574 20631 20647 20677 20777 20722 20793 20693 20708 20767 20720 20723 20648 20571 20482 20459 20379 20483 20485 20525 20620 20602 20464 20345 20286 20264 20163 19949 19855 19731 19555 19371 19101 19027 18824 18711 18456 18288 18289 18196 18169 18071 17996 17903 17889 17802 17789 17675 17622 17599 17561 17464 17314 17192 16999 16928 16850 16686 16648 16528 16328
