20511 20414 20394 20296 20186 20082 20030 20093 20117 20093 20115 20153 20218 20266 20282 20253 20269 20213 20175 20163 20126 20132 20204 20238 20297 20338 20443 20521 20612 20701 20789 20804 20811 20884 20915 20858 20892 20924 20929 20798 20758 20722 20715 20735 20702 20667 20630 20596 20624 20679 20725 20701 20727 20726 20709 20655 20627 20662 20665 20563 20487 20388 20339 20268 20248 20225 20184 20139 20112 20114 20126 20007 19896 19861 19807 19694 19549 19504 19399 19341 19306 19242 19172 19160 19105 19087 19092 18990 18949 18849 18747 18697 18668 18651 18572 18529 18468 18416 18408 18395 18327 18256 18216 17715 17718 17718 17718 17718 17724 17946 17902 17914 17972 17995 17967 18035 18056 18092 18164 18126 18122 18092 18103 18061 18037 17977 17939 17930 17892 17906 17860 17795 17765 17747 17768 17770 17789 17751 17759 17759 17790 17761 17727 17709 17683 17658 17692 17691 17715 17715 17708 17629 17579 17539 17438 17369 17272 17114 17046 16961 16913 16882 16857 16801 16814 16794 16774 16760 16717 16637 16549 16464 16334 16215 16065 16034 16035 15998 15957 15912 15824 15746 15757 15701 15638 15504 15414 15385 15312 15193 15058 14906 14788 14694 14592 14520 14475 14367 14255 14176 14063 13918 13794 13782 13674 13584 13495 13342 13251 13200 13130 13051 12908 12825 12702 12513 12373 12217 12051 11918 11829 11650 11498 11390 11366 11274 11190 11074 10894 10784 10665 10571 10522 10394 10310 10245 10194 10124 10072 9958 9873 9786 9709 9550 9447 9323 9158 9144 9100 9115 9075 9104 9070 9143 9193 9156 9139 9179 9165 9081 9056 9026 9010 8973 8973 9029 9082 9020 8947 8936 8951 8991 9008 9069 9065 9093 9191 9275 9322 9275 9162 9151 9171 9086 9072 9050 9028 8925 8836 8754 8737 8698 8727 8617 8554 8546 8597 8560 8587 8546 8512 8487 8494 8528 8530 8541 8616 8702 8710 8764 8795 8813 8880 8913 8883 8964 9021 9108 9171 9147 9083 9060 9039 9085 9090 9085 9090 9154 9253 9351 9459 9593 9682 9750 9880 9907 9962 9966 10041 10139 10217 10300 10354 10387 10367 10343 10350 10388 10441 10494 10508 10526 10524 10619 10643 10705 10787 10821 10921 10919 10852 10886 10894 10909 10915 10899 10923 10844 10755 10670 10612 10523 10472 10463 10463 10415 10380 10369 10320 10353 10363 10333 10355 10451 10590 10617 10668 10673 10655 10676 10740 10780 10806 10881 10942 10887 10868 10914 10978 11053 11151 11233 11321 11327 11309 11411 11507 11538 11544 11504 11439 11511 11611 11656 11670 11740 11853 11877 11929 11889 11898 11879 11938 11976 12006 12071 12105 12113 12093 12057 12065 12075 12108 12140 11955 11935 11926 11926 11926 11917 11900 12394 12416 12530 12578 12666 12739 12768 12873 12940 12975 13054 13082 13215 13309 13344 13318 13363 13452 13475 13497 13515 13532 13583 13600 13605 13661 13703 13733 13755 13850 13818 13824 13822 13827 13834 13793 13831 13840 13873 13940 14017 14064 14115 14138 14142 14246 14147 14140 14192 14184 14161 14178 14181 14128 14186 14165 14169 14221 14157 14154 14146 14073
20513 20421 20351 20251 20183 20157 20072 20136 20147 20191 20174 20235 20317 20307 20346 20302 20306 20310 20269 20242 20207 20244 20253 20300 20377 20384 20437 20500 20609 20704 20829 20867 20880 20904 20898 20870 20879 20861 20908 20793 20742 20731 20723 20689 20689 20644 20616 20633 20638 20648 20693 20677 20717 20727 20710 20703 20641 20659 20628 20582 20507 20409 20310 20300 20259 20191 20173 20131 20050 20047 20023 19971 19880 19865 19805 19718 19573 19490 19390 19345 19310 19270 19256 19197 19154 19179 19172 19037 18967 18838 18741 18713 18650 18572 18525 18476 18416 18407 18404 18393 18342 18265 18250 17711 17711 17711 17711 17711 18005 17921 17848 17835 17832 17876 17924 17986 18024 18055 18125 18146 18140 18150 18124 18099 18025 18010 17945 17923 17868 17867 17813 17769 17717 17723 17754 17784 17763 17722 17726 17748 17708 17668 17670 17678 17631 17628 17614 17680 17687 17655 17661 17573 17547 17501 17406 17301 17247 17102 17008 16998 16970 16938 16868 16834 16834 16789 16779 16714 16684 16597 16545 16433 16266 16171 16086 16076 16062 15984 15893 15903 15867 15784 15763 15674 15645 15548 15436 15352 15239 15103 14986 14859 14769 14667 14549 14478 14371 14304 14188 14116 14074 13974 13835 13775 13666 13574 13453 13358 13259 13221 13130 13019 12929 12822 12742 12548 12391 12188 12026 11941 11814 11689 11531 11424 11369 11258 11189 11045 10914 10782 10690 10600 10525 10350 10235 10188 10169 10132 10048 9920 9820 9724 9669 9518 9385 9274 9162 9128 9098 9147 9161 9147 9146 9208 9239 9204 9233 9238 9201 9138 9129 9089 9082 9045 8990 9059 9076 9006 8959 8991 9002 9054 9067 9087 9119 9153 9195 9272 9338 9284 9185 9128 9122 9072 9085 9073 9030 8963 8838 8774 8762 8724 8713 8687 8603 8601 8655 8640 8672 8631 8597 8592 8580 8570 8615 8653 8712 8821 8868 8909 8915 8926 8975 8996 8962 9040 9062 9115 9215 9169 9118 9083 9053 9081 9147 9132 9119 9186 9316 9425 9472 9574 9634 9730 9848 9865 9894 9958 10016 10100 10205 10254 10306 10358 10351 10308 10311 10380 10426 10509 10550 10526 10521 10565 10598 10690 10732 10804 10898 10861 10835 10894 10894 10874 10877 10893 10897 10858 10797 10738 10664 10588 10531 10491 10458 10446 10425 10372 10309 10313 10372 10339 10367 10523 10622 10664 10744 10719 10708 10769 10810 10840 10822 10891 10932 10899 10879 10914 10954 11017 11088 11209 11282 11317 11300 11364 11472 11486 11506 11451 11403 11505 11579 11635 11661 11707 11764 11813 11851 11811 11823 11795 11808 11843 11917 11976 12081 12054 12023 12064 12074 12068 12070 12075 12090 11925 11909 11909 11909 11909 11892 12392 12406 12428 12491 12556 12661 12703 12782 12872 12990 13045 13047 13136 13234 13260 13292 13360 13416 13452 13471 13480 13527 13541 13619 13624 13678 13733 13767 13739 13767 13721 13738 13728 13775 13762 13699 13741 13731 13790 13911 13970 14018 14078 14081 14108 14169 14129 14142 14210 14234 14201 14200 14157 14121 14135 14106 14140 14232 14170 14120 14088 14056
20500 20386 20297 20240 20222 20181 20163 20233 20219 20276 20257 20333 20389 20400 20453 20403 20413 20333 20326 20275 20215 20227 20286 20301 20404 20404 20492 20601 20681 20781 20877 20885 20895 20928 20946 20962 20944 20886 20936 20833 20739 20700 20705 20697 20662 20612 20615 20620 20619 20671 20739 20747 20693 20710 20692 20690 20642 20609 20586 20556 20499 20410 20326 20261 20248 20164 20123 20091 19995 19997 19971 19908 19818 19789 19788 19663 19619 19512 19429 19362 19340 19276 19264 19208 19212 19201 19187 19087 18975 18816 18728 18619 18549 18489 18423 18400 18358 18304 18297 18328 18278 18248 18208 17707 17707 17707 17707 17707 17883 17821 17825 17774 17780 17848 17843 17902 17987 18004 18112 18087 18131 18132 18069 18075 18040 17972 17975 17902 17866 17822 17808 17732 17750 17772 17770 17714 17705 17702 17688 17716 17666 17657 17664 17600 17555 17553 17555 17637 17666 17684 17658 17574 17536 17445 17383 17276 17171 17076 16937 16944 16970 16899 16850 16840 16795 16765 16762 16749 16688 16600 16534 16423 16295 16177 16054 16032 16043 15929 15849 15863 15819 15789 15756 15709 15612 15529 15413 15356 15260 15092 14979 14867 14716 14604 14512 14395 14340 14249 14173 14110 14024 13967 13830 13749 13646 13560 13471 13390 13319 13237 13165 13013 12875 12808 12752 12542 12416 12228 12104 11959 11821 11730 11599 11473 11376 11278 11173 11013 10897 10778 10642 10588 10498 10352 10211 10182 10185 10112 10005 9865 9764 9682 9647 9546 9391 9264 9175 9175 9168 9197 9260 9253 9260 9293 9347 9316 9284 9234 9252 9229 9172 9165 9110 9051 9033 9055 9066 9003 8964 9039 9028 9093 9132 9164 9225 9243 9286 9350 9336 9280 9210 9134 9101 9070 9069 9056 9021 8969 8865 8812 8813 8794 8786 8753 8642 8669 8721 8723 8736 8678 8660 8710 8709 8771 8799 8796 8868 8933 8937 8990 9044 9069 9067 9061 9015 9059 9098 9184 9211 9146 9128 9118 9123 9184 9185 9170 9172 9249 9349 9455 9529 9630 9671 9767 9856 9874 9891 9969 9990 10107 10180 10184 10248 10270 10321 10346 10364 10381 10410 10463 10534 10545 10535 10567 10612 10631 10679 10778 10831 10796 10791 10844 10899 10883 10832 10828 10867 10844 10819 10723 10659 10610 10567 10537 10539 10526 10465 10429 10385 10415 10392 10430 10430 10501 10620 10672 10796 10738 10781 10792 10834 10872 10864 10856 10902 10902 10920 10899 10934 11020 11122 11166 11257 11277 11292 11395 11451 11463 11454 11391 11361 11454 11529 11565 11620 11633 11703 11764 11790 11738 11748 11753 11756 11786 11843 11935 11989 11990 11978 11998 12026 12040 12055 12079 12058 11925 11909 11909 11909 11909 11892 12354 12320 12431 12473 12554 12635 12693 12708 12840 13002 13000 13047 13150 13213 13254 13282 13355 13423 13473 13502 13490 13553 13545 13634 13629 13666 13685 13697 13740 13764 13715 13673 13681 13737 13699 13700 13699 13715 13789 13846 13903 13994 14012 13978 13989 14050 14070 14077 14122 14165 14186 14171 14144 14108 14097 14072 14152 14249 14171 14137 14072 14075
20442 20380 20299 20284 20278 20257 20196 20305 20352 20385 20396 20405 20434 20471 20514 20518 20467 20376 20335 20324 20280 20281 20271 20328 20425 20449 20485 20613 20729 20779 20868 20902 20948 20980 20980 21018 21001 20930 20907 20843 20766 20695 20648 20611 20624 20638 20618 20605 20655 20668 20742 20756 20715 20731 20701 20674 20587 20622 20598 20558 20483 20400 20312 20265 20207 20144 20118 20058 19998 19980 19980 19917 19794 19760 19728 19650 19633 19543 19458 19400 19327 19303 19239 19215 19237 19204 19163 19069 18958 18814 18660 18600 18494 18444 18363 18329 18261 18256 18254 18245 18222 18227 18199 17703 17703 17703 17703 17703 17796 17762 17767 17720 17731 17802 17814 17913 17954 17977 18054 18059 18066 18096 18074 18045 18009 17965 17965 17957 17906 17800 17754 17726 17736 17744 17811 17711 17658 17643 17600 17661 17670 17628 17618 17562 17511 17530 17524 17585 17625 17636 17643 17579 17553 17481 17416 17250 17122 17051 16930 16958 16937 16891 16890 16851 16788 16735 16742 16713 16640 16588 16575 16443 16283 16161 16078 16067 16005 15925 15831 15830 15780 15794 15781 15725 15609 15543 15440 15358 15240 15078 14932 14792 14670 14535 14438 14351 14284 14185 14101 14073 14010 13919 13833 13732 13613 13535 13469 13433 13346 13228 13149 13041 12874 12817 12713 12580 12410 12262 12143 12025 11878 11764 11637 11523 11353 11250 11175 11031 10836 10703 10625 10518 10431 10368 10250 10215 10177 10047 9979 9832 9721 9678 9584 9531 9458 9312 9223 9226 9221 9275 9326 9298 9317 9330 9404 9372 9375 9279 9241 9252 9228 9182 9159 9133 9087 9035 9010 9008 8998 9058 9071 9150 9205 9230 9305 9301 9352 9387 9377 9297 9251 9172 9094 9109 9105 9102 9055 8971 8922 8893 8839 8835 8801 8778 8731 8737 8770 8764 8748 8736 8756 8792 8824 8912 8940 8977 9069 9068 9054 9093 9160 9149 9140 9145 9114 9145 9166 9201 9240 9196 9196 9179 9175 9243 9274 9262 9250 9333 9415 9474 9543 9629 9677 9815 9906 9904 9916 9976 10000 10080 10127 10171 10240 10228 10281 10357 10387 10420 10454 10515 10545 10575 10553 10565 10568 10628 10631 10725 10782 10796 10805 10864 10898 10889 10828 10808 10793 10795 10789 10763 10710 10646 10581 10606 10578 10536 10460 10452 10426 10452 10456 10436 10446 10532 10678 10727 10801 10771 10806 10871 10894 10890 10925 10871 10854 10923 10940 10923 10935 11019 11148 11187 11236 11242 11311 11367 11399 11368 11355 11376 11338 11433 11490 11569 11594 11601 11618 11660 11701 11680 11634 11644 11670 11753 11824 11900 11955 11957 11934 11960 12031 12011 12049 12028 12022 11916 11900 11892 11892 11892 11884 11869 12299 12386 12417 12462 12547 12603 12695 12849 12969 13036 13072 13168 13223 13264 13326 13433 13485 13503 13519 13527 13524 13545 13620 13640 13652 13667 13669 13694 13712 13680 13644 13667 13642 13638 13640 13670 13666 13737 13749 13864 13930 13889 13898 13894 13947 13991 13985 14058 14147 14143 14080 14074 14046 14072 14077 14162 14213 14164 14129 14073 14043
20433 20387 20315 20335 20273 20290 20285 20311 20387 20424 20381 20463 20473 20520 20573 20517 20500 20395 20364 20341 20320 20310 20277 20334 20383 20441 20493 20621 20720 20831 20884 20920 20970 20940 20939 20972 21023 20965 20930 20876 20809 20708 20647 20682 20692 20670 20649 20667 20676 20713 20744 20728 20749 20727 20712 20626 20555 20568 20521 20485 20393 20329 20300 20195 20143 20110 20113 20046 19954 19996 19982 19910 19811 19793 19743 19629 19599 19478 19419 19350 19322 19250 19230 19206 19171 19153 19158 19057 18938 18801 18674 18587 18460 18394 18291 18304 18283 18191 18205 18209 18189 18171 18127 17695 17695 17695 17695 17695 17790 17731 17740 17717 17771 17767 17803 17837 17887 17963 18011 18002 18035 18066 18055 18045 17988 17934 17892 17892 17867 17808 17761 17741 17741 17743 17768 17723 17629 17608 17627 17633 17674 17607 17566 17558 17519 17518 17498 17552 17586 17569 17549 17496 17502 17415 17314 17220 17096 17014 16940 16948 16921 16921 16901 16822 16787 16713 16715 16676 16609 16601 16530 16434 16295 16222 16104 16114 16038 15954 15832 15800 15794 15742 15719 15629 15530 15488 15381 15286 15215 15056 14901 14787 14662 14554 14433 14383 14295 14197 14126 14018 13948 13822 13753 13675 13599 13498 13422 13382 13293 13191 13085 12998 12856 12811 12672 12519 12385 12269 12122 11979 11894 11722 11588 11517 11376 11266 11190 11029 10861 10755 10611 10542 10469 10374 10230 10179 10154 10039 9981 9838 9695 9615 9566 9477 9403 9313 9250 9286 9251 9300 9340 9315 9350 9351 9436 9397 9416 9329 9244 9214 9205 9226 9198 9170 9146 9081 9047 9085 9047 9070 9108 9180 9279 9288 9348 9376 9391 9419 9375 9331 9277 9235 9159 9121 9100 9132 9089 9038 9008 8966 8966 8888 8851 8834 8796 8835 8851 8828 8822 8839 8858 8870 8962 8969 9023 9050 9151 9158 9128 9108 9161 9185 9219 9179 9218 9229 9221 9267 9312 9217 9237 9236 9182 9242 9320 9316 9318 9403 9486 9545 9663 9717 9724 9847 9956 9956 9939 9974 10008 10085 10083 10173 10223 10213 10283 10340 10390 10433 10463 10490 10568 10577 10546 10582 10575 10628 10661 10673 10746 10722 10746 10802 10873 10840 10822 10778 10787 10775 10793 10745 10724 10657 10615 10621 10629 10583 10481 10496 10518 10512 10443 10446 10426 10495 10632 10692 10794 10810 10808 10824 10851 10849 10889 10942 10947 10979 10973 10967 10991 11046 11134 11153 11213 11250 11268 11310 11347 11303 11336 11342 11336 11366 11412 11545 11600 11570 11587 11635 11678 11632 11630 11611 11585 11674 11775 11848 11898 11922 11891 11897 11926 11921 11932 11936 11928 11927 11892 11878 11878 11878 11878 11863 12242 12345 12368 12443 12533 12601 12636 12825 12975 13009 13009 13105 13187 13260 13330 13404 13476 13498 13474 13505 13479 13536 13558 13570 13624 13609 13601 13631 13640 13635 13624 13606 13643 13588 13591 13665 13656 13711 13748 13844 13896 13899 13868 13883 13863 13928 13933 13993 14035 14032 14031 14019 14016 14056 14082 14163 14211 14195 14140 14100 14113
20446 20415 20394 20368 20331 20314 20350 20352 20397 20421 20412 20473 20547 20590 20591 20539 20498 20433 20392 20327 20298 20280 20281 20340 20381 20443 20545 20596 20699 20829 20914 20940 20984 20955 20930 20973 20996 20974 20896 20881 20826 20746 20678 20691 20733 20729 20702 20700 20751 20743 20708 20722 20797 20753 20738 20650 20561 20481 20450 20420 20334 20257 20236 20156 20114 20092 20049 19996 19914 19961 19964 19898 19780 19739 19713 19642 19547 19466 19330 19291 19291 19267 19246 19225 19169 19157 19099 19029 18898 18818 18721 18583 18480 18354 18283 18270 18244 18150 18099 18089 18143 18101 18078 17691 17691 17691 17691 17691 17762 17726 17699 17746 17749 17810 17812 17857 17869 17881 17926 17983 17983 18015 18067 18057 18011 17936 17846 17845 17857 17805 17753 17781 17755 17755 17785 17734 17632 17630 17634 17608 17617 17574 17554 17554 17522 17528 17503 17508 17529 17520 17491 17466 17399 17319 17252 17168 17064 17019 16933 16912 16892 16922 16899 16803 16761 16721 16736 16678 16622 16601 16545 16436 16339 16291 16189 16137 16077 15980 15840 15810 15833 15755 15692 15626 15510 15403 15327 15228 15164 15045 14865 14778 14672 14553 14416 14346 14262 14163 14094 14030 13931 13797 13717 13661 13551 13443 13354 13297 13252 13104 12996 12922 12870 12778 12666 12533 12391 12220 12106 11973 11863 11743 11586 11490 11391 11292 11193 11028 10890 10782 10659 10606 10495 10373 10227 10219 10159 10049 9929 9823 9693 9587 9529 9430 9391 9291 9242 9305 9312 9365 9357 9394 9389 9375 9412 9409 9397 9359 9273 9245 9232 9255 9298 9262 9224 9184 9117 9117 9127 9158 9177 9255 9305 9344 9334 9393 9411 9411 9396 9396 9361 9272 9174 9121 9128 9147 9154 9130 9124 9065 9041 8960 8892 8832 8800 8870 8879 8863 8858 8885 8931 8963 9059 9033 9066 9101 9193 9187 9191 9176 9225 9208 9256 9238 9283 9299 9308 9311 9330 9254 9241 9224 9227 9276 9356 9350 9371 9440 9528 9643 9724 9778 9807 9946 10057 10009 9990 10007 10043 10082 10103 10139 10204 10237 10267 10320 10350 10436 10502 10531 10588 10566 10556 10568 10558 10630 10658 10675 10697 10729 10718 10776 10812 10828 10823 10811 10826 10824 10802 10783 10757 10744 10680 10642 10636 10622 10560 10561 10561 10511 10470 10446 10419 10511 10591 10702 10803 10801 10859 10875 10836 10894 10890 10970 10989 10986 10956 11012 11028 11098 11167 11200 11216 11180 11194 11218 11267 11273 11273 11250 11277 11309 11367 11475 11608 11576 11609 11661 11692 11669 11657 11611 11528 11599 11685 11726 11824 11863 11881 11868 11824 11772 11769 11773 11781 11850 11884 11870 11866 11866 11866 11860 11852 12267 12346 12432 12490 12587 12633 12760 12942 12975 12982 13122 13200 13279 13334 13423 13460 13492 13475 13458 13446 13463 13532 13550 13598 13576 13537 13515 13538 13597 13610 13620 13639 13588 13582 13624 13695 13713 13792 13782 13821 13851 13891 13850 13844 13874 13922 13959 13975 13974 14027 14037 14017 14041 14130 14161 14150 14168 14176 14140 14131
20474 20456 20450 20444 20417 20425 20390 20429 20453 20474 20423 20485 20563 20549 20572 20526 20476 20394 20388 20314 20309 20280 20333 20344 20381 20461 20550 20605 20740 20874 20951 20984 21004 20995 20921 20979 20968 20914 20914 20871 20863 20769 20705 20770 20780 20773 20734 20715 20750 20720 20705 20741 20782 20756 20763 20686 20619 20528 20444 20346 20271 20203 20173 20107 20056 19991 19934 19934 19873 19920 19916 19836 19729 19702 19670 19562 19513 19431 19314 19254 19262 19258 19195 19161 19140 19145 19087 18987 18926 18799 18725 18569 18445 18352 18244 18182 18150 18115 18066 18030 18047 18037 17985 17684 17684 17684 17684 17684 17755 17708 17723 17786 17794 17793 17792 17807 17836 17898 17928 17915 17932 17984 18039 18010 17952 17907 17809 17842 17852 17821 17801 17795 17783 17761 17737 17706 17606 17598 17607 17538 17526 17489 17498 17491 17477 17519 17561 17545 17537 17505 17446 17402 17382 17299 17188 17115 17037 16996 16931 16903 16883 16943 16919 16876 16805 16778 16814 16754 16674 16665 16558 16472 16340 16311 16201 16145 16058 16007 15909 15845 15852 15753 15663 15553 15474 15396 15281 15198 15080 15003 14875 14785 14641 14550 14392 14328 14178 14124 14048 13985 13874 13751 13684 13585 13481 13382 13343 13226 13160 13020 12943 12920 12882 12745 12647 12515 12361 12229 12106 11988 11811 11692 11571 11498 11395 11254 11170 11006 10845 10745 10633 10579 10482 10329 10212 10153 10121 10012 9936 9835 9749 9661 9556 9503 9403 9300 9261 9280 9340 9372 9370 9384 9402 9386 9418 9384 9394 9349 9289 9310 9275 9294 9336 9348 9306 9243 9159 9228 9237 9267 9261 9313 9327 9337 9361 9405 9362 9389 9406 9409 9364 9313 9242 9167 9127 9192 9194 9134 9112 9140 9134 9041 8975 8925 8841 8918 8953 8935 8982 9020 9071 9102 9154 9172 9149 9194 9258 9241 9250 9246 9308 9319 9294 9358 9392 9411 9385 9388 9380 9313 9303 9272 9288 9338 9391 9391 9402 9514 9591 9667 9770 9816 9919 9974 10084 10042 10037 10068 10128 10132 10166 10175 10192 10220 10308 10352 10356 10411 10486 10506 10538 10500 10505 10578 10560 10596 10658 10710 10739 10692 10693 10757 10754 10803 10825 10814 10819 10770 10743 10763 10712 10734 10710 10670 10685 10665 10650 10616 10596 10518 10467 10424 10399 10521 10558 10663 10751 10816 10834 10835 10889 10874 10939 10986 10969 10978 10976 10983 11032 11098 11163 11168 11156 11124 11188 11217 11201 11226 11244 11251 11231 11291 11345 11443 11577 11563 11569 11604 11643 11616 11596 11560 11456 11516 11590 11633 11725 11781 11839 11770 11763 11727 11676 11687 11705 11715 11739 11863 11856 11856 11856 11856 11850 12223 12263 12376 12498 12559 12601 12697 12836 12909 12945 13064 13189 13249 13350 13394 13431 13455 13476 13449 13481 13468 13501 13528 13534 13485 13452 13414 13459 13466 13530 13578 13586 13566 13553 13657 13666 13736 13796 13794 13802 13826 13866 13807 13797 13846 13888 13910 13912 13939 13975 14043 14073 14079 14127 14138 14165 14197 14146 14137 14137
20456 20465 20496 20468 20444 20461 20450 20476 20448 20482 20488 20502 20522 20509 20556 20510 20431 20390 20347 20342 20309 20329 20370 20378 20426 20519 20606 20665 20767 20862 20953 20990 21013 21020 20966 20976 20946 20920 20871 20875 20849 20795 20719 20791 20815 20776 20794 20725 20709 20729 20752 20777 20803 20808 20826 20731 20631 20555 20430 20326 20254 20196 20108 20035 20008 19948 19876 19864 19866 19850 19850 19729 19652 19596 19575 19493 19421 19367 19262 19242 19223 19225 19199 19182 19158 19100 19100 18991 18935 18809 18696 18567 18468 18342 18220 18157 18118 18074 17994 18005 17986 17955 17672 17681 17681 17681 17681 17684 17709 17742 17751 17776 17777 17777 17780 17763 17774 17854 17891 17927 17942 17934 17969 17979 17935 17859 17830 17817 17807 17818 17855 17843 17793 17701 17655 17667 17632 17581 17550 17528 17461 17483 17486 17510 17490 17530 17558 17573 17542 17485 17427 17381 17327 17227 17185 17144 17059 16986 16927 16892 16894 16944 16941 16924 16857 16866 16831 16797 16757 16703 16610 16489 16386 16295 16193 16141 16076 15997 15953 15917 15835 15749 15604 15516 15387 15338 15244 15137 15044 14989 14916 14775 14640 14531 14417 14308 14138 14081 13982 13898 13803 13676 13592 13488 13410 13377 13287 13196 13069 12979 12953 12926 12850 12722 12629 12484 12306 12218 12100 11948 11774 11669 11517 11434 11382 11226 11130 10943 10811 10706 10604 10519 10411 10300 10230 10167 10086 10052 10005 9917 9838 9704 9551 9530 9456 9361 9297 9317 9368 9364 9424 9390 9403 9416 9468 9419 9417 9411 9366 9402 9382 9369 9414 9373 9351 9334 9262 9322 9326 9316 9350 9406 9410 9398 9401 9387 9351 9386 9424 9403 9388 9352 9254 9217 9186 9218 9223 9178 9158 9204 9190 9131 9056 8974 8930 8956 9021 9051 9049 9125 9163 9189 9254 9298 9293 9293 9354 9338 9289 9331 9353 9367 9374 9447 9483 9505 9485 9492 9486 9417 9378 9344 9348 9405 9417 9383 9399 9501 9661 9732 9841 9919 9972 10030 10110 10080 10082 10122 10159 10175 10183 10167 10216 10230 10293 10319 10404 10399 10431 10454 10515 10516 10510 10572 10602 10656 10657 10696 10736 10694 10695 10712 10740 10761 10820 10815 10823 10755 10730 10699 10680 10668 10693 10678 10709 10722 10698 10676 10594 10522 10463 10446 10430 10528 10586 10665 10742 10796 10833 10838 10890 10894 10952 10988 11000 10965 10967 11026 11050 11063 11104 11067 11087 11102 11133 11146 11131 11168 11213 11202 11232 11294 11338 11392 11501 11528 11494 11516 11581 11564 11524 11510 11438 11470 11509 11566 11656 11685 11752 11732 11745 11662 11644 11645 11654 11675 11672 11863 11856 11856 11856 11856 11850 12148 12238 12345 12476 12511 12569 12674 12789 12866 12954 13074 13198 13297 13352 13410 13421 13414 13436 13431 13459 13461 13452 13463 13430 13384 13321 13340 13335 13368 13456 13533 13591 13587 13585 13662 13690 13736 13780 13777 13831 13817 13791 13775 13784 13768 13800 13829 13903 13885 13929 13997 14081 14104 14156 14167 14201 14197 14177 14126 14097
20472 20444 20517 20456 20475 20431 20469 20437 20461 20503 20514 20503 20514 20550 20582 20512 20493 20449 20401 20386 20400 20412 20454 20462 20529 20578 20707 20707 20793 20842 20933 20979 20992 20990 20993 20964 20940 20898 20851 20838 20829 20785 20677 20759 20813 20787 20831 20762 20701 20722 20750 20762 20814 20829 20893 20784 20688 20561 20432 20322 20196 20154 20092 20070 20028 19977 19885 19898 19928 19875 19848 19743 19642 19604 19596 19548 19475 19373 19303 19278 19280 19247 19231 19215 19209 19166 19142 19024 18923 18799 18679 18605 18489 18407 18241 18215 18138 18121 18035 18038 18006 17940 17670 17675 17675 17675 17675 17680 17680 17689 17744 17744 17753 17783 17806 17782 17790 17819 17792 17821 17842 17855 17891 17912 17904 17877 17812 17811 17803 17812 17891 17854 17764 17703 17637 17679 17670 17663 17573 17555 17519 17541 17548 17568 17537 17561 17511 17538 17480 17469 17419 17372 17287 17228 17138 17070 17041 17013 16950 16886 16908 16910 16898 16892 16836 16814 16785 16758 16728 16639 16542 16447 16330 16217 16124 16070 16021 15956 15866 15824 15744 15654 15531 15415 15346 15283 15185 15102 15016 14953 14899 14778 14613 14500 14457 14334 14213 14118 13989 13889 13816 13721 13619 13527 13384 13342 13273 13168 13076 13003 12914 12854 12806 12729 12642 12451 12302 12170 12100 11957 11830 11668 11570 11446 11380 11258 11144 10979 10855 10752 10604 10510 10485 10376 10282 10219 10114 10104 10024 9958 9839 9727 9549 9510 9461 9357 9248 9246 9286 9378 9408 9401 9378 9333 9373 9373 9325 9345 9389 9385 9403 9422 9483 9434 9402 9353 9299 9325 9355 9403 9430 9438 9516 9502 9496 9468 9373 9418 9411 9408 9403 9379 9310 9261 9244 9238 9196 9234 9233 9267 9257 9181 9125 9075 9001 9004 9061 9091 9100 9146 9209 9261 9328 9338 9322 9350 9335 9333 9323 9342 9400 9407 9431 9490 9486 9500 9551 9522 9518 9440 9422 9389 9422 9456 9456 9434 9474 9576 9693 9757 9827 9957 10009 10007 10061 10051 10068 10083 10097 10159 10141 10141 10161 10165 10254 10274 10294 10359 10398 10423 10499 10469 10488 10537 10583 10612 10687 10684 10706 10692 10690 10758 10790 10739 10789 10800 10831 10780 10763 10763 10733 10729 10725 10704 10752 10753 10692 10673 10574 10506 10443 10417 10432 10503 10552 10648 10783 10826 10838 10842 10873 10876 10919 10944 10977 10967 10971 11037 11055 11055 11091 11039 11053 11033 11068 11119 11120 11187 11229 11214 11219 11309 11346 11404 11452 11428 11414 11470 11484 11457 11421 11443 11411 11483 11508 11593 11665 11692 11705 11671 11697 11655 11677 11691 11701 11729 11718 11858 11852 11849 11849 11849 11846 11839 12214 12331 12484 12498 12517 12638 12781 12813 12893 13008 13163 13177 13225 13287 13332 13320 13340 13355 13413 13388 13403 13358 13344 13288 13255 13302 13288 13314 13372 13486 13541 13524 13515 13592 13679 13656 13674 13718 13754 13768 13754 13726 13751 13780 13788 13833 13850 13861 13883 13980 14017 14065 14121 14160 14210 14172 14155 14152 14143
20453 20452 20481 20492 20464 20422 20430 20462 20476 20500 20567 20540 20523 20590 20644 20562 20536 20520 20471 20479 20471 20499 20519 20575 20600 20662 20753 20778 20799 20870 20930 20967 20960 20996 21003 20942 20924 20925 20874 20822 20802 20721 20672 20684 20761 20794 20885 20799 20738 20739 20695 20760 20774 20849 20898 20819 20695 20577 20411 20318 20192 20167 20126 20119 20078 20005 19926 19911 19931 19911 19859 19769 19697 19677 19651 19581 19500 19476 19390 19361 19289 19289 19256 19257 19243 19164 19132 19057 18961 18835 18679 18585 18545 18456 18314 18256 18144 18130 18097 18068 17978 17934 17670 17672 17672 17672 17672 17676 17673 17656 17695 17690 17731 17725 17774 17790 17809 17776 17756 17722 17752 17799 17793 17836 17870 17812 17806 17852 17839 17867 17910 17827 17781 17691 17659 17682 17709 17713 17659 17656 17598 17603 17568 17555 17556 17560 17519 17473 17468 17379 17350 17307 17288 17191 17150 17046 17002 16954 16927 16923 16860 16875 16896 16879 16824 16831 16795 16687 16640 16534 16488 16379 16315 16221 16065 16042 15990 15933 15829 15745 15713 15584 15461 15388 15267 15235 15157 15098 15043 14991 14877 14761 14595 14523 14477 14377 14231 14093 13945 13885 13834 13735 13604 13505 13371 13296 13225 13140 13056 13006 12898 12798 12760 12664 12608 12475 12329 12170 12052 11963 11832 11720 11581 11508 11374 11279 11130 11029 10909 10767 10611 10561 10497 10366 10286 10246 10157 10144 10079 9948 9849 9736 9574 9479 9432 9276 9169 9200 9236 9337 9380 9378 9324 9293 9323 9331 9292 9343 9361 9389 9476 9522 9562 9556 9503 9437 9385 9362 9394 9429 9453 9515 9570 9593 9564 9502 9448 9433 9404 9416 9391 9357 9317 9254 9245 9253 9219 9237 9310 9324 9299 9216 9151 9081 9017 9061 9129 9190 9198 9245 9309 9334 9367 9392 9364 9349 9342 9319 9361 9399 9480 9462 9492 9504 9516 9539 9568 9571 9575 9525 9530 9464 9446 9496 9557 9533 9559 9651 9682 9764 9878 9965 10037 10054 10055 10083 10066 10088 10099 10153 10158 10161 10113 10112 10156 10168 10206 10261 10344 10439 10475 10469 10439 10513 10533 10582 10682 10705 10724 10738 10723 10768 10783 10743 10738 10815 10858 10777 10740 10756 10775 10744 10709 10766 10784 10724 10680 10626 10608 10530 10481 10456 10379 10448 10535 10682 10774 10815 10869 10871 10828 10863 10878 10934 11009 10986 10979 11008 11005 11018 11070 11035 11021 11000 11043 11096 11111 11173 11240 11200 11221 11305 11389 11436 11424 11388 11385 11401 11398 11338 11335 11341 11368 11426 11452 11564 11642 11619 11651 11632 11622 11689 11718 11718 11696 11760 11764 11813 11850 11841 11841 11841 11841 11833 12220 12314 12455 12498 12522 12634 12740 12830 12876 12969 13080 13139 13144 13204 13261 13297 13272 13296 13368 13360 13325 13318 13296 13287 13245 13216 13229 13284 13323 13383 13446 13446 13498 13552 13670 13647 13628 13665 13663 13679 13671 13672 13718 13755 13810 13776 13767 13823 13895 13931 14011 14067 14142 14136 14158 14139 14112 14096 14127
20486 20501 20497 20470 20483 20445 20468 20498 20519 20512 20525 20555 20559 20626 20642 20610 20560 20564 20488 20494 20508 20549 20557 20613 20648 20743 20786 20876 20909 20905 20946 20989 20959 20964 20956 20900 20900 20853 20835 20779 20791 20717 20671 20699 20798 20838 20879 20817 20738 20774 20734 20765 20761 20803 20900 20763 20653 20505 20405 20289 20205 20161 20094 20058 20013 20010 19946 19933 19902 19865 19848 19806 19795 19746 19758 19688 19586 19496 19442 19428 19340 19343 19295 19266 19217 19201 19155 19085 18952 18799 18681 18630 18558 18404 18300 18273 18176 18164 18161 18078 17981 17969 17667 17669 17669 17669 17669 17676 17608 17645 17627 17654 17728 17769 17773 17777 17793 17749 17725 17730 17731 17770 17738 17773 17798 17828 17806 17855 17821 17878 17890 17842 17771 17741 17748 17740 17680 17703 17670 17671 17616 17633 17586 17594 17579 17588 17512 17488 17483 17409 17362 17294 17247 17202 17101 17052 17008 16945 16920 16912 16889 16861 16883 16898 16877 16864 16789 16662 16542 16484 16402 16321 16265 16137 16063 15989 15927 15867 15730 15703 15652 15553 15402 15343 15239 15187 15181 15060 15028 14907 14839 14705 14592 14541 14476 14325 14215 14067 13911 13863 13800 13735 13583 13474 13344 13277 13244 13191 13107 12996 12915 12774 12690 12640 12571 12454 12330 12146 12015 11896 11766 11688 11581 11486 11340 11266 11164 11063 10954 10807 10680 10577 10537 10386 10241 10217 10170 10107 10087 9938 9793 9682 9507 9422 9384 9247 9191 9230 9291 9342 9333 9366 9318 9337 9332 9297 9280 9317 9399 9455 9539 9563 9648 9654 9606 9558 9485 9455 9510 9531 9510 9545 9621 9613 9615 9549 9486 9447 9404 9387 9379 9365 9382 9311 9314 9340 9297 9304 9321 9309 9280 9217 9174 9096 9027 9084 9187 9267 9311 9323 9366 9379 9424 9423 9385 9399 9406 9435 9442 9476 9503 9498 9473 9497 9525 9527 9567 9565 9572 9580 9579 9503 9482 9544 9639 9617 9664 9730 9801 9845 9881 9957 10054 10021 10060 10065 10041 10034 9987 10057 10060 10061 10064 10092 10144 10148 10171 10189 10259 10320 10415 10427 10467 10528 10547 10588 10634 10648 10653 10685 10728 10719 10751 10764 10723 10815 10853 10812 10822 10790 10744 10715 10728 10793 10814 10728 10719 10672 10673 10582 10526 10454 10429 10518 10586 10692 10778 10812 10816 10854 10821 10841 10878 10940 10992 10962 10963 10997 10989 11003 11043 11029 11047 11062 11120 11160 11152 11190 11247 11199 11219 11300 11360 11432 11420 11410 11357 11324 11333 11287 11267 11282 11308 11405 11441 11550 11602 11614 11622 11597 11596 11644 11699 11683 11675 11699 11777 11846 11847 11833 11833 11833 11833 11828 12191 12278 12414 12461 12486 12564 12651 12696 12787 12910 13027 13037 13061 13133 13215 13264 13282 13351 13374 13356 13351 13317 13314 13281 13235 13201 13196 13183 13223 13279 13344 13402 13417 13521 13616 13602 13589 13622 13623 13647 13644 13653 13656 13675 13768 13750 13734 13820 13866 13895 13954 14026 14081 14108 14135 14135 14139 14201 14219
20562 20548 20512 20506 20503 20505 20465 20472 20511 20539 20535 20532 20567 20623 20623 20597 20575 20587 20546 20547 20572 20588 20653 20662 20700 20779 20856 20927 20969 20947 20966 20987 20967 20935 20922 20879 20847 20794 20792 20786 20745 20696 20702 20736 20800 20846 20850 20804 20802 20784 20736 20732 20744 20799 20879 20725 20630 20508 20380 20257 20194 20146 20042 20002 20005 19979 19957 19929 19934 19869 19844 19844 19850 19826 19810 19762 19690 19565 19467 19471 19443 19395 19308 19243 19214 19227 19217 19084 18972 18846 18697 18626 18522 18424 18331 18242 18188 18181 18172 18074 18023 17962 17663 17663 17663 17663 17663 17675 17587 17595 17554 17603 17707 17762 17786 17800 17811 17747 17730 17727 17719 17706 17700 17729 17706 17786 17819 17818 17804 17826 17906 17853 17787 17768 17782 17728 17702 17664 17676 17683 17665 17622 17547 17556 17579 17578 17570 17558 17511 17474 17379 17315 17212 17161 17052 17008 16957 16934 16916 16903 16924 16926 16901 16877 16897 16855 16776 16617 16508 16449 16364 16251 16167 16096 16035 15980 15905 15773 15667 15648 15581 15503 15399 15308 15267 15187 15166 15042 14966 14884 14748 14704 14616 14498 14414 14293 14198 14033 13918 13868 13807 13730 13591 13467 13368 13297 13225 13160 13112 13028 12905 12816 12679 12590 12496 12421 12286 12137 12032 11847 11725 11592 11520 11404 11313 11248 11185 11100 10956 10812 10719 10612 10525 10417 10253 10220 10173 10081 10038 9925 9791 9639 9475 9407 9288 9218 9167 9196 9286 9285 9339 9313 9321 9322 9289 9290 9298 9377 9434 9467 9543 9606 9684 9700 9669 9626 9560 9567 9581 9585 9600 9635 9622 9639 9621 9563 9502 9460 9407 9377 9360 9401 9430 9398 9402 9380 9341 9354 9346 9351 9298 9224 9159 9133 9089 9145 9248 9324 9383 9387 9414 9469 9503 9444 9446 9438 9452 9487 9474 9484 9498 9494 9503 9493 9537 9502 9529 9582 9617 9628 9644 9573 9554 9664 9719 9728 9760 9820 9866 9892 9925 9956 10025 10017 10004 10020 10015 9980 9938 9966 10021 10064 10062 10060 10118 10127 10109 10187 10203 10240 10339 10422 10471 10520 10556 10584 10577 10584 10606 10617 10691 10728 10759 10782 10750 10776 10860 10861 10848 10835 10760 10769 10756 10779 10790 10757 10726 10733 10697 10622 10565 10516 10457 10537 10622 10676 10758 10795 10805 10819 10798 10836 10869 10951 10987 10984 11006 11016 10974 11009 11018 11045 11075 11092 11166 11210 11202 11190 11222 11200 11225 11283 11363 11407 11422 11388 11313 11281 11282 11241 11233 11281 11285 11373 11482 11537 11555 11603 11620 11619 11588 11642 11692 11705 11694 11686 11732 11797 11863 11828 11828 11828 11828 11828 12167 12280 12350 12439 12506 12541 12593 12634 12706 12816 12938 13016 13037 13091 13202 13231 13282 13345 13358 13358 13375 13341 13283 13259 13233 13203 13123 13155 13169 13228 13298 13344 13361 13444 13542 13528 13556 13527 13531 13589 13586 13615 13646 13652 13718 13714 13715 13809 13858 13890 13910 13948 14035 14055 14081 14143 14193 14244 14259
20564 20560 20555 20537 20531 20536 20511 20536 20542 20571 20556 20607 20629 20635 20688 20618 20624 20618 20636 20692 20725 20716 20768 20792 20820 20811 20847 20920 20920 20914 20929 20932 20948 20932 20957 20876 20849 20850 20827 20803 20777 20734 20709 20813 20886 20873 20864 20829 20839 20789 20804 20785 20720 20811 20851 20734 20615 20482 20399 20345 20257 20197 20079 20056 20022 19988 19960 19964 19932 19860 19837 19855 19851 19890 19872 19742 19649 19568 19510 19512 19493 19417 19345 19266 19250 19227 19198 19091 18923 18787 18693 18621 18497 18401 18335 18238 18188 18159 18198 18085 18028 17986 17657 17657 17657 17657 17657 17664 17590 17554 17551 17615 17627 17671 17758 17756 17784 17756 17724 17675 17689 17709 17676 17702 17714 17793 17841 17848 17876 17912 17939 17909 17854 17861 17830 17776 17761 17731 17660 17650 17682 17639 17550 17553 17546 17542 17533 17484 17424 17372 17343 17288 17186 17122 17041 16985 16974 16922 16884 16893 16879 16874 16897 16839 16854 16809 16702 16596 16492 16403 16302 16219 16128 16034 15984 15951 15886 15723 15648 15602 15557 15448 15399 15299 15264 15170 15103 15041 14919 14846 14732 14670 14602 14480 14407 14303 14215 14084 13937 13904 13836 13774 13634 13528 13382 13330 13242 13140 13044 12970 12924 12850 12691 12609 12518 12444 12313 12216 12072 11931 11779 11622 11529 11452 11328 11259 11205 11090 10981 10807 10691 10602 10545 10404 10225 10211 10151 10105 10031 9896 9751 9613 9497 9458 9371 9297 9226 9233 9230 9274 9341 9265 9257 9272 9277 9311 9338 9434 9486 9553 9589 9617 9713 9703 9667 9686 9668 9662 9687 9664 9677 9670 9609 9630 9600 9562 9514 9491 9446 9436 9390 9404 9450 9404 9400 9401 9351 9310 9317 9314 9336 9301 9198 9181 9101 9202 9313 9414 9447 9419 9481 9483 9512 9531 9538 9476 9481 9471 9506 9527 9512 9490 9506 9556 9608 9546 9551 9603 9641 9647 9660 9628 9659 9766 9818 9820 9843 9849 9879 9860 9891 9934 9967 9974 9984 10034 10032 9973 9966 9983 9985 9987 10011 10038 10044 10059 10050 10092 10160 10243 10307 10348 10417 10406 10435 10473 10496 10571 10600 10597 10708 10770 10795 10824 10790 10844 10865 10880 10861 10814 10805 10792 10777 10778 10761 10797 10785 10760 10699 10658 10589 10513 10462 10491 10584 10647 10714 10742 10797 10768 10750 10751 10768 10848 10903 10927 10903 10923 10981 11012 10985 11046 11075 11074 11125 11144 11220 11199 11261 11284 11249 11249 11305 11364 11345 11370 11309 11281 11269 11253 11239 11295 11293 11389 11464 11484 11497 11523 11561 11558 11548 11602 11641 11609 11634 11710 11729 11755 11824 11828 11821 11821 11821 11821 11801 12178 12312 12362 12453 12531 12607 12675 12718 12836 12911 12940 12998 13029 13121 13127 13173 13245 13281 13279 13255 13236 13261 13250 13223 13142 13089 13155 13162 13270 13329 13324 13334 13406 13456 13433 13472 13470 13528 13532 13558 13581 13621 13620 13673 13723 13742 13751 13779 13848 13890 13936 14011 14023 14103 14144 14227 14284 14342
20535 20561 20541 20570 20598 20607 20581 20605 20637 20637 20581 20640 20685 20667 20700 20677 20710 20729 20779 20794 20830 20804 20842 20848 20900 20892 20875 20891 20934 20970 20949 20926 20913 20953 20956 20915 20895 20896 20882 20804 20780 20770 20718 20798 20914 20945 20930 20896 20874 20859 20824 20768 20748 20755 20763 20678 20586 20467 20396 20353 20268 20193 20145 20078 20055 20046 19997 19973 19892 19896 19849 19876 19856 19891 19874 19772 19655 19637 19557 19533 19528 19457 19360 19348 19334 19294 19233 19073 18930 18799 18731 18613 18513 18397 18334 18232 18169 18162 18173 18110 18047 17988 17654 17654 17654 17654 17654 17669 17653 17605 17590 17610 17584 17618 17671 17688 17711 17686 17669 17657 17694 17715 17674 17692 17758 17813 17878 17920 17930 17910 17950 17914 17871 17874 17818 17775 17763 17729 17649 17696 17685 17598 17570 17535 17471 17499 17491 17402 17372 17346 17289 17190 17135 17046 16973 16966 16971 16897 16867 16827 16792 16839 16888 16848 16781 16731 16626 16555 16479 16322 16206 16101 16049 16003 15906 15841 15806 15687 15584 15522 15515 15458 15394 15350 15304 15225 15099 14992 14829 14726 14657 14595 14536 14456 14434 14345 14241 14095 13965 13895 13829 13780 13711 13569 13393 13297 13211 13091 13028 13010 12974 12847 12678 12623 12581 12450 12299 12249 12143 11975 11872 11687 11566 11439 11346 11287 11232 11079 10953 10820 10680 10617 10512 10374 10242 10188 10160 10087 10028 9872 9740 9614 9501 9442 9418 9336 9224 9192 9224 9238 9293 9251 9247 9302 9295 9383 9427 9462 9513 9558 9623 9657 9736 9709 9699 9719 9714 9757 9741 9741 9696 9695 9633 9628 9615 9609 9559 9496 9463 9463 9426 9431 9437 9424 9406 9379 9299 9326 9305 9330 9399 9354 9292 9225 9160 9301 9406 9454 9475 9482 9490 9537 9552 9565 9592 9536 9528 9501 9503 9508 9465 9495 9510 9593 9623 9595 9560 9636 9664 9638 9666 9701 9720 9826 9919 9951 9952 9933 9883 9860 9843 9881 9927 9937 9956 9997 10008 10005 9945 9972 9989 9920 9905 9928 9925 9992 10037 10032 10088 10190 10255 10292 10316 10321 10334 10400 10427 10494 10532 10590 10712 10763 10791 10827 10805 10840 10860 10822 10845 10825 10847 10831 10769 10762 10789 10774 10793 10748 10684 10652 10598 10546 10443 10508 10608 10633 10722 10747 10758 10781 10753 10768 10723 10782 10803 10812 10834 10876 10949 10978 10992 11011 11079 11100 11103 11139 11212 11220 11276 11304 11288 11278 11249 11279 11306 11352 11344 11326 11300 11280 11275 11259 11261 11356 11467 11459 11494 11476 11508 11478 11483 11481 11538 11563 11615 11684 11721 11696 11736 11822 11809 11809 11809 11809 11796 12143 12259 12309 12420 12533 12604 12666 12742 12784 12825 12920 12974 13023 13054 13077 13127 13117 13167 13167 13172 13211 13226 13188 13180 13140 13099 13169 13193 13244 13321 13284 13273 13310 13335 13380 13399 13457 13529 13563 13554 13558 13625 13631 13685 13737 13728 13697 13725 13816 13852 13929 13980 14011 14099 14146 14217 14276 14373
20558 20588 20565 20580 20577 20585 20605 20607 20641 20639 20637 20730 20748 20771 20752 20784 20759 20826 20852 20849 20875 20891 20915 20902 20909 20886 20883 20910 20949 20946 20919 20915 20936 20948 20986 20933 20950 20929 20929 20852 20817 20848 20787 20864 20972 20971 20960 20944 20893 20874 20842 20800 20771 20767 20738 20641 20567 20460 20392 20341 20253 20207 20181 20168 20122 20080 20101 20013 19962 19897 19895 19925 19902 19911 19908 19785 19731 19656 19645 19541 19519 19450 19349 19374 19336 19283 19235 19138 19009 18857 18786 18639 18537 18417 18267 18179 18145 18159 18181 18096 18022 17950 17654 17654 17654 17654 17654 17622 17619 17596 17602 17584 17580 17616 17674 17706 17701 17642 17583 17637 17629 17647 17633 17684 17751 17840 17891 17881 17912 17882 17907 17912 17853 17840 17843 17791 17754 17707 17682 17671 17686 17607 17588 17535 17456 17428 17411 17351 17330 17312 17287 17217 17089 17054 16972 16927 16885 16845 16816 16822 16769 16802 16813 16761 16758 16653 16585 16502 16418 16291 16172 16069 16008 15918 15857 15796 15770 15682 15568 15544 15469 15456 15430 15369 15299 15170 15069 14931 14817 14721 14604 14545 14520 14487 14411 14376 14285 14152 14013 13911 13807 13779 13714 13568 13414 13260 13188 13058 12988 12988 12923 12823 12679 12636 12584 12450 12371 12263 12186 12030 11902 11772 11619 11519 11409 11330 11240 11052 10943 10785 10680 10637 10518 10376 10305 10220 10133 10118 10043 9879 9760 9666 9531 9461 9450 9332 9226 9219 9200 9206 9265 9240 9233 9297 9299 9354 9444 9531 9550 9579 9657 9660 9708 9761 9769 9770 9761 9787 9814 9804 9754 9753 9696 9694 9627 9598 9533 9532 9479 9487 9440 9458 9459 9460 9418 9363 9354 9318 9319 9384 9402 9373 9319 9269 9256 9338 9450 9506 9558 9545 9575 9577 9587 9579 9607 9610 9588 9566 9536 9507 9511 9531 9517 9563 9631 9572 9589 9658 9711 9758 9783 9843 9868 9919 10024 10014 9985 9982 9927 9922 9874 9850 9867 9936 9959 9959 9943 9977 9942 9959 9915 9907 9876 9903 9887 9916 9955 9981 10050 10112 10137 10230 10261 10269 10311 10384 10456 10502 10547 10633 10658 10769 10821 10803 10808 10849 10905 10871 10911 10877 10902 10870 10832 10811 10795 10780 10769 10773 10715 10633 10551 10502 10473 10512 10541 10628 10682 10697 10677 10700 10678 10697 10696 10747 10752 10793 10826 10855 10918 10922 10986 11019 11064 11072 11113 11148 11170 11227 11274 11257 11261 11258 11237 11268 11271 11322 11339 11311 11271 11301 11339 11312 11329 11392 11440 11429 11485 11455 11497 11455 11500 11510 11513 11561 11573 11585 11646 11654 11718 11817 11797 11797 11797 11797 11790 12161 12275 12350 12410 12463 12586 12664 12707 12719 12744 12854 12934 12952 12991 13042 13082 13116 13126 13096 13098 13160 13155 13155 13172 13135 13106 13153 13197 13229 13272 13246 13274 13288 13276 13322 13364 13417 13515 13524 13511 13536 13549 13622 13678 13708 13685 13668 13710 13767 13757 13856 13948 14012 14089 14156 14268 14273 14344
20611 20601 20596 20574 20600 20618 20677 20657 20664 20678 20716 20774 20815 20860 20857 20862 20863 20885 20905 20944 20980 21003 20974 20954 20942 20939 20922 20939 20946 20938 20942 20943 20930 20942 20985 21007 20985 20964 20938 20935 20887 20894 20863 20909 20979 21001 20986 20918 20900 20867 20874 20879 20851 20785 20706 20623 20548 20469 20350 20307 20253 20193 20160 20167 20129 20139 20152 20074 20023 19964 19966 19939 19904 19909 19926 19838 19751 19690 19679 19578 19522 19450 19352 19349 19318 19241 19180 19116 19026 18908 18839 18717 18600 18424 18250 18186 18183 18151 18140 18091 17993 17883 17654 17654 17654 17654 17654 17591 17606 17593 17574 17570 17582 17651 17665 17665 17646 17613 17557 17555 17566 17600 17595 17630 17725 17802 17852 17874 17860 17888 17928 17915 17879 17885 17841 17808 17741 17751 17748 17745 17744 17669 17618 17545 17423 17399 17354 17296 17245 17269 17259 17198 17093 17039 16938 16899 16856 16828 16812 16806 16742 16771 16783 16734 16682 16618 16514 16410 16356 16209 16122 16024 15937 15867 15829 15759 15673 15608 15589 15509 15485 15444 15449 15408 15316 15167 15072 14942 14787 14706 14596 14563 14506 14446 14447 14362 14313 14176 14071 13946 13848 13772 13722 13582 13399 13258 13148 13079 12985 12980 12919 12787 12708 12669 12591 12508 12432 12360 12231 12117 11974 11823 11669 11586 11484 11316 11193 11050 10963 10825 10733 10616 10506 10382 10311 10223 10166 10130 10090 9953 9790 9672 9526 9482 9427 9314 9208 9217 9190 9224 9242 9247 9205 9231 9297 9408 9514 9556 9629 9636 9703 9734 9709 9748 9813 9801 9854 9871 9905 9872 9864 9830 9807 9759 9651 9602 9544 9528 9519 9539 9510 9490 9500 9429 9419 9363 9361 9356 9379 9403 9442 9437 9388 9387 9348 9446 9530 9541 9590 9618 9642 9682 9685 9675 9643 9643 9675 9656 9584 9584 9527 9549 9573 9575 9614 9598 9635 9718 9754 9805 9870 9918 9995 10042 10080 10090 10041 10027 9990 9934 9879 9895 9869 9869 9905 9923 9925 9935 9935 9886 9897 9867 9818 9885 9893 9884 9849 9911 9952 9973 10052 10125 10154 10198 10234 10365 10435 10473 10551 10620 10638 10735 10789 10834 10874 10889 10912 10946 10960 10965 10959 10920 10864 10810 10814 10745 10737 10747 10752 10634 10555 10531 10453 10468 10475 10542 10603 10569 10559 10542 10588 10668 10693 10704 10673 10709 10804 10836 10873 10910 10951 11012 11042 11052 11119 11160 11176 11231 11257 11254 11289 11248 11241 11286 11288 11258 11282 11289 11253 11281 11352 11349 11343 11403 11429 11461 11467 11493 11522 11472 11467 11478 11448 11480 11529 11565 11623 11672 11716 11790 11790 11786 11786 11786 11786 11775 12277 12314 12414 12453 12543 12604 12658 12704 12710 12787 12862 12929 12987 13004 12992 13036 13061 13049 13039 13054 13105 13146 13154 13188 13160 13168 13213 13255 13259 13257 13269 13255 13215 13308 13369 13436 13454 13471 13496 13515 13478 13554 13632 13637 13662 13654 13650 13692 13681 13797 13902 13988 14063 14181 14257 14318 14378
20747 20743 20683 20682 20666 20673 20709 20730 20700 20723 20770 20847 20897 20893 20913 20913 20906 20936 20949 20999 21050 21003 20990 20968 20985 21004 21004 21015 21018 20982 20971 20975 20914 20916 20945 21000 20973 20913 20890 20893 20910 20887 20907 20901 20958 20907 20922 20856 20855 20843 20858 20820 20782 20721 20684 20617 20515 20424 20375 20344 20273 20206 20124 20105 20075 20116 20091 20025 19994 19912 19892 19895 19868 19849 19907 19822 19736 19650 19631 19531 19450 19417 19344 19303 19238 19218 19165 19075 18967 18897 18789 18650 18546 18370 18239 18199 18175 18176 18140 18046 17953 17678 17660 17660 17660 17660 17655 17616 17616 17621 17596 17564 17555 17626 17643 17636 17609 17531 17506 17505 17537 17528 17569 17641 17699 17762 17831 17820 17829 17880 17910 17830 17819 17794 17766 17764 17765 17773 17750 17693 17672 17582 17543 17493 17406 17383 17311 17279 17231 17232 17195 17127 17038 16948 16867 16843 16772 16707 16694 16694 16684 16694 16709 16668 16639 16580 16501 16424 16351 16245 16131 16066 15973 15907 15838 15780 15706 15649 15610 15502 15446 15465 15486 15416 15366 15246 15089 14943 14773 14666 14579 14542 14441 14427 14378 14256 14218 14071 13954 13852 13742 13693 13606 13438 13289 13182 13110 13003 12933 12894 12822 12775 12674 12661 12579 12466 12342 12248 12092 11954 11827 11712 11591 11543 11447 11308 11203 11041 10945 10795 10731 10625 10501 10423 10348 10223 10142 10122 10087 9963 9868 9679 9528 9510 9435 9379 9281 9294 9236 9289 9262 9271 9283 9347 9372 9460 9490 9516 9544 9594 9660 9625 9648 9730 9788 9752 9803 9780 9789 9753 9742 9779 9783 9724 9628 9566 9512 9504 9453 9488 9473 9430 9445 9426 9367 9318 9329 9327 9394 9388 9424 9405 9363 9315 9315 9409 9474 9482 9547 9576 9588 9631 9615 9586 9575 9584 9615 9561 9542 9562 9528 9563 9600 9594 9609 9616 9646 9702 9735 9775 9828 9907 10007 10002 9993 9982 10023 10015 9961 9864 9799 9830 9822 9822 9829 9855 9856 9884 9869 9875 9866 9801 9794 9847 9872 9807 9816 9874 9955 9999 10036 10078 10087 10204 10282 10327 10368 10412 10521 10564 10558 10644 10743 10787 10798 10794 10820 10856 10899 10882 10929 10876 10882 10860 10811 10784 10775 10744 10748 10661 10632 10601 10543 10569 10548 10615 10624 10582 10592 10604 10615 10653 10677 10720 10698 10786 10857 10896 10905 10966 10999 11011 11070 11092 11113 11138 11169 11217 11208 11273 11277 11249 11240 11254 11281 11227 11236 11202 11200 11245 11322 11326 11317 11395 11410 11396 11412 11428 11506 11473 11408 11427 11468 11527 11559 11622 11666 11712 11758 11791 11790 11786 11786 11786 11786 11775 12293 12362 12402 12447 12509 12525 12580 12613 12662 12732 12774 12833 12927 12939 12944 12944 12975 13028 13021 13043 13079 13108 13128 13137 13094 13098 13172 13164 13162 13172 13197 13122 13089 13165 13272 13329 13323 13359 13400 13371 13353 13472 13538 13575 13589 13598 13601 13620 13665 13796 13915 13965 14088 14114 14195 14238 14285
20836 20823 20766 20787 20797 20745 20703 20731 20794 20802 20846 20856 20919 20930 20965 20998 20974 21011 21044 21043 21102 21031 20988 20967 20992 21023 21049 21054 21044 20999 20980 20980 20933 20967 20942 20987 20996 20928 20869 20935 20942 20946 20896 20914 20890 20841 20819 20787 20815 20816 20860 20835 20766 20674 20629 20570 20470 20411 20390 20305 20256 20175 20118 20098 20044 20035 20025 19941 19904 19881 19812 19833 19849 19830 19831 19735 19692 19608 19565 19474 19421 19375 19276 19200 19163 19139 19126 19026 18893 18810 18688 18596 18538 18380 18202 18234 18208 18185 18120 18027 17964 17678 17664 17664 17664 17664 17658 17610 17612 17588 17560 17543 17543 17577 17588 17602 17598 17516 17469 17491 17496 17484 17520 17646 17726 17718 17775 17808 17806 17805 17841 17752 17709 17710 17728 17727 17773 17769 17753 17658 17628 17563 17529 17460 17417 17323 17271 17252 17249 17175 17150 17077 17013 16943 16820 16789 16721 16646 16601 16612 16659 16686 16672 16617 16542 16479 16457 16364 16296 16218 16142 16063 16021 15902 15820 15757 15709 15658 15591 15506 15471 15477 15474 15437 15370 15243 15091 14920 14797 14700 14559 14474 14441 14376 14261 14176 14127 13994 13879 13705 13595 13550 13461 13312 13211 13109 13044 12943 12868 12800 12788 12711 12654 12598 12550 12379 12261 12111 11991 11846 11729 11648 11545 11442 11381 11329 11234 11056 10912 10762 10668 10528 10444 10393 10341 10242 10140 10158 10114 9985 9892 9686 9542 9507 9505 9391 9311 9347 9325 9311 9297 9308 9371 9391 9422 9478 9488 9486 9518 9528 9585 9578 9633 9659 9746 9715 9699 9716 9711 9689 9680 9682 9727 9718 9652 9586 9536 9510 9427 9429 9439 9429 9442 9369 9340 9332 9298 9314 9388 9367 9372 9331 9340 9275 9272 9380 9445 9467 9510 9501 9496 9565 9572 9561 9495 9543 9536 9554 9516 9506 9498 9538 9614 9625 9631 9635 9633 9664 9677 9726 9840 9885 9971 9963 9951 9931 9953 9925 9923 9823 9769 9765 9817 9785 9788 9814 9824 9822 9771 9770 9785 9764 9728 9728 9793 9784 9789 9815 9899 9947 10002 10022 10070 10197 10274 10280 10304 10385 10455 10472 10509 10580 10657 10701 10704 10718 10786 10820 10871 10839 10861 10861 10871 10833 10824 10807 10794 10763 10729 10730 10720 10677 10622 10652 10630 10655 10681 10651 10630 10638 10632 10645 10699 10698 10757 10825 10871 10941 10973 11002 11007 11024 11068 11099 11075 11126 11174 11223 11220 11250 11228 11249 11233 11239 11261 11229 11210 11174 11183 11225 11307 11300 11318 11345 11380 11413 11389 11430 11454 11422 11393 11412 11457 11538 11629 11644 11718 11776 11802 11876 11784 11779 11779 11779 11779 11774 12315 12370 12394 12470 12521 12538 12553 12611 12616 12646 12725 12795 12892 12879 12900 12894 12952 12987 13033 13018 13051 13084 13127 13103 13092 13083 13136 13153 13130 13072 13070 12998 12982 13080 13150 13214 13217 13229 13243 13207 13217 13322 13434 13468 13535 13523 13532 13595 13659 13740 13877 13968 14063 14093 14123 14154 14186
20927 20887 20898 20868 20848 20806 20777 20812 20863 20940 20998 20993 20986 20976 21007 21011 20999 21063 21141 21130 21135 21038 21027 21022 21002 21036 21039 21035 21092 21034 20993 20991 20958 20951 20964 20967 20952 20936 20886 20902 20939 20940 20921 20917 20854 20815 20766 20748 20790 20807 20828 20766 20721 20716 20640 20549 20467 20411 20364 20307 20250 20163 20082 20020 19979 19980 19984 19931 19877 19809 19682 19730 19787 19788 19751 19718 19665 19621 19601 19480 19420 19336 19277 19242 19171 19150 19099 19049 18939 18775 18677 18578 18485 18353 18203 18260 18264 18210 18122 18045 18019 17687 17673 17673 17673 17673 17658 17650 17649 17612 17592 17612 17600 17582 17583 17594 17561 17533 17503 17511 17502 17503 17515 17560 17654 17732 17750 17720 17763 17766 17745 17683 17706 17707 17669 17688 17722 17702 17703 17634 17623 17567 17500 17448 17402 17361 17279 17255 17182 17116 17099 17039 16984 16857 16759 16739 16663 16576 16526 16574 16596 16581 16616 16559 16519 16453 16434 16352 16317 16252 16209 16097 16032 15935 15864 15816 15755 15683 15602 15530 15504 15512 15539 15478 15344 15219 15084 14944 14827 14694 14594 14512 14426 14311 14230 14080 13991 13866 13757 13645 13531 13428 13329 13246 13110 13044 12932 12870 12779 12747 12682 12635 12574 12521 12478 12326 12153 12041 11903 11748 11647 11589 11503 11441 11346 11306 11227 11027 10918 10769 10685 10538 10420 10376 10289 10231 10139 10126 10126 10011 9906 9707 9556 9537 9530 9440 9366 9408 9352 9341 9338 9407 9442 9411 9444 9480 9455 9455 9441 9520 9603 9616 9618 9681 9696 9664 9673 9650 9660 9651 9638 9674 9671 9690 9629 9570 9537 9489 9462 9441 9420 9420 9413 9355 9309 9305 9319 9284 9310 9333 9288 9318 9336 9309 9272 9334 9388 9414 9447 9484 9503 9535 9503 9482 9440 9476 9434 9458 9460 9472 9498 9542 9574 9649 9668 9678 9656 9675 9644 9718 9800 9830 9915 9944 9935 9918 9905 9912 9848 9801 9739 9710 9741 9708 9729 9756 9730 9709 9721 9737 9696 9713 9672 9710 9749 9712 9713 9806 9868 9925 10038 10060 10092 10155 10253 10282 10271 10369 10445 10421 10481 10521 10610 10641 10657 10700 10744 10765 10843 10813 10834 10823 10849 10853 10829 10782 10769 10714 10713 10714 10732 10698 10689 10710 10679 10684 10725 10703 10678 10663 10689 10746 10776 10781 10862 10898 10915 10930 10953 10988 10965 10988 11051 11088 11100 11153 11174 11209 11194 11207 11174 11185 11186 11234 11217 11165 11145 11177 11152 11201 11268 11315 11298 11339 11357 11367 11322 11326 11372 11356 11337 11377 11453 11581 11673 11681 11758 11766 11798 11850 11779 11776 11776 11776 11776 11775 12257 12284 12337 12443 12506 12504 12541 12574 12580 12667 12706 12765 12777 12820 12821 12881 12921 12924 12941 12947 12980 13024 13058 13021 13042 12980 13006 12990 13017 12975 12956 12954 12911 12962 13001 13054 13093 13068 13080 13105 13106 13230 13320 13343 13435 13468 13481 13593 13699 13739 13886 13945 14038 14063 14125 14157 14143
21039 20981 20975 20983 20945 20871 20817 20871 20919 21007 21103 21123 21081 21062 21033 21056 21088 21115 21178 21181 21144 21090 21057 21048 21077 21087 21059 21054 21106 21051 21031 21005 20962 20952 20995 20977 20948 20961 20913 20889 20891 20895 20890 20900 20866 20765 20726 20773 20812 20832 20854 20801 20739 20711 20646 20545 20470 20415 20327 20288 20221 20137 20042 19988 19936 19963 19935 19894 19835 19737 19613 19651 19714 19733 19733 19698 19650 19592 19578 19541 19462 19371 19320 19229 19179 19144 19106 19048 18928 18784 18638 18559 18471 18349 18265 18247 18265 18217 18154 18084 18012 17698 17689 17689 17689 17689 17663 17690 17689 17670 17599 17599 17623 17577 17556 17524 17539 17530 17485 17438 17453 17424 17458 17527 17635 17695 17706 17690 17725 17675 17643 17655 17646 17631 17574 17621 17682 17668 17700 17627 17616 17534 17517 17445 17379 17319 17253 17220 17126 17134 17091 17021 16910 16828 16749 16685 16604 16574 16507 16557 16588 16556 16546 16518 16463 16439 16380 16360 16312 16262 16250 16127 16028 16000 15925 15848 15769 15733 15635 15625 15583 15614 15621 15480 15372 15223 15108 14972 14816 14678 14605 14521 14376 14287 14146 13993 13881 13779 13691 13585 13429 13329 13232 13135 13056 12964 12863 12814 12750 12678 12636 12574 12540 12455 12399 12235 12093 11951 11851 11702 11609 11505 11442 11383 11289 11232 11189 11037 10874 10791 10678 10530 10424 10367 10292 10211 10174 10107 10088 9986 9892 9732 9627 9601 9545 9494 9424 9456 9444 9428 9423 9441 9494 9469 9508 9442 9434 9440 9424 9505 9573 9600 9649 9675 9667 9675 9621 9590 9609 9618 9602 9605 9666 9655 9649 9587 9540 9521 9462 9449 9436 9445 9393 9325 9311 9299 9324 9312 9292 9296 9266 9292 9279 9286 9272 9291 9349 9381 9426 9442 9470 9451 9457 9398 9386 9383 9386 9373 9369 9381 9453 9506 9521 9625 9691 9674 9653 9619 9617 9746 9821 9840 9905 9880 9908 9897 9905 9850 9781 9693 9650 9696 9697 9704 9721 9713 9670 9661 9645 9672 9664 9650 9675 9714 9720 9693 9686 9735 9801 9875 10012 10051 10087 10149 10224 10257 10282 10354 10381 10389 10431 10503 10534 10612 10632 10672 10689 10749 10821 10834 10827 10830 10827 10824 10820 10800 10754 10739 10761 10770 10795 10736 10703 10778 10791 10778 10773 10804 10779 10760 10760 10803 10883 10915 10948 10924 10931 10953 10950 10958 10915 10936 10974 11005 11072 11166 11214 11188 11153 11195 11178 11204 11180 11203 11179 11178 11121 11130 11133 11234 11283 11286 11329 11366 11355 11280 11269 11268 11330 11339 11307 11398 11441 11583 11690 11730 11787 11795 11819 11867 11967 11775 11776 11776 11776 11776 11778 12296 12325 12411 12488 12489 12521 12574 12606 12669 12675 12664 12672 12710 12773 12861 12887 12889 12894 12922 12891 12959 12969 12967 12948 12917 12883 12909 12890 12897 12854 12835 12818 12804 12821 12899 12921 12962 12941 12997 13039 13128 13210 13273 13329 13372 13478 13574 13684 13739 13840 13951 14014 14078 14094 14088 14093
21095 21065 21020 20998 20974 20926 20921 20994 21024 21071 21137 21153 21160 21171 21108 21143 21145 21149 21185 21166 21119 21119 21086 21071 21059 21063 21026 21072 21140 21119 21056 21019 21036 21054 21079 21018 20954 20967 20974 20955 20911 20904 20925 20859 20860 20747 20732 20781 20807 20844 20859 20799 20728 20687 20656 20546 20464 20374 20287 20238 20214 20128 20028 20005 19948 19939 19910 19827 19733 19668 19554 19599 19599 19613 19639 19620 19577 19492 19485 19425 19396 19337 19295 19230 19178 19143 19085 18997 18909 18826 18684 18583 18483 18359 18308 18287 18295 18198 18125 18037 17998 17710 17710 17710 17710 17710 17733 17667 17676 17587 17540 17558 17555 17534 17567 17508 17495 17475 17459 17429 17376 17414 17474 17541 17611 17640 17622 17617 17642 17577 17579 17613 17585 17582 17500 17591 17632 17688 17694 17610 17534 17482 17467 17401 17347 17296 17171 17141 17131 17074 17042 16970 16842 16707 16672 16609 16508 16503 16456 16480 16548 16553 16542 16445 16362 16382 16346 16310 16298 16232 16236 16124 16060 15982 15962 15899 15796 15724 15696 15692 15638 15658 15654 15543 15376 15247 15118 14939 14796 14657 14539 14419 14326 14223 14069 13975 13834 13712 13619 13531 13394 13257 13148 13075 12952 12871 12838 12760 12694 12655 12598 12522 12506 12371 12278 12125 12030 11888 11808 11704 11652 11546 11480 11400 11286 11192 11118 11007 10844 10750 10702 10569 10469 10354 10277 10263 10213 10125 10050 10018 9929 9754 9655 9649 9601 9583 9537 9490 9486 9486 9441 9448 9528 9495 9446 9423 9412 9402 9415 9484 9551 9561 9635 9628 9639 9662 9615 9610 9595 9612 9614 9645 9650 9633 9591 9557 9557 9541 9487 9491 9417 9396 9389 9360 9335 9360 9403 9395 9339 9348 9297 9270 9296 9259 9270 9258 9277 9301 9350 9360 9370 9418 9402 9370 9333 9324 9323 9368 9407 9414 9443 9481 9537 9593 9657 9639 9661 9677 9657 9745 9784 9829 9892 9878 9861 9853 9905 9823 9740 9657 9659 9633 9650 9652 9622 9633 9624 9579 9606 9617 9638 9636 9628 9648 9648 9641 9640 9733 9777 9857 9972 9989 10063 10093 10191 10230 10273 10345 10358 10391 10381 10417 10482 10514 10582 10599 10671 10721 10719 10745 10811 10782 10802 10783 10770 10743 10767 10749 10704 10747 10761 10749 10688 10765 10781 10815 10802 10816 10797 10834 10830 10895 10949 10945 10987 10990 10967 11033 11050 11018 10971 10987 11033 11092 11106 11223 11242 11226 11183 11185 11169 11190 11218 11237 11211 11176 11082 11126 11136 11176 11246 11252 11297 11288 11338 11298 11269 11283 11333 11345 11334 11450 11482 11567 11668 11710 11757 11826 11847 11950 11999 11775 11776 11776 11776 11776 11778 12221 12257 12325 12409 12414 12427 12489 12575 12594 12666 12672 12676 12689 12782 12812 12851 12820 12812 12820 12785 12801 12874 12848 12798 12790 12803 12800 12763 12794 12752 12746 12769 12747 12721 12784 12823 12868 12845 12922 13024 13072 13163 13210 13242 13342 13420 13501 13606 13676 13813 13864 13932 13981 14048 14055 14053
21104 21056 21058 21075 21062 21034 20997 21067 21091 21167 21235 21229 21192 21235 21219 21216 21214 21213 21224 21176 21153 21168 21142 21095 21066 21080 21038 21080 21144 21114 21119 21101 21112 21129 21114 21075 20980 20963 21006 20990 20992 20961 20904 20874 20828 20727 20677 20756 20809 20812 20805 20731 20692 20646 20645 20575 20454 20364 20311 20227 20187 20132 20062 20000 19928 19892 19905 19786 19662 19621 19534 19553 19534 19563 19595 19526 19486 19427 19390 19397 19372 19325 19229 19207 19167 19124 19099 18988 18909 18813 18752 18592 18493 18416 18305 18328 18293 18179 18115 18071 18031 17721 17721 17721 17721 17721 17702 17662 17617 17558 17501 17530 17504 17556 17567 17485 17419 17385 17398 17392 17363 17373 17439 17513 17558 17549 17561 17540 17584 17516 17509 17535 17577 17547 17490 17530 17601 17635 17643 17519 17452 17426 17406 17323 17284 17238 17135 17105 17103 17045 16998 16860 16720 16612 16560 16499 16434 16406 16418 16477 16476 16462 16482 16429 16316 16305 16348 16340 16303 16209 16175 16071 16031 15995 15957 15887 15842 15796 15732 15704 15739 15730 15712 15542 15325 15230 15104 14950 14770 14608 14503 14365 14275 14117 14011 13889 13832 13716 13603 13511 13419 13253 13120 13030 12886 12857 12778 12718 12672 12590 12555 12474 12410 12289 12175 12077 11943 11843 11766 11688 11637 11539 11468 11390 11333 11211 11076 10971 10826 10776 10698 10588 10453 10372 10290 10287 10229 10153 10064 9985 9915 9786 9680 9666 9633 9597 9592 9512 9496 9511 9493 9501 9512 9443 9438 9390 9365 9379 9353 9446 9532 9575 9559 9614 9642 9618 9633 9617 9551 9563 9606 9617 9657 9631 9583 9580 9573 9543 9548 9521 9454 9442 9406 9383 9392 9421 9473 9423 9430 9366 9313 9322 9320 9256 9220 9193 9206 9256 9305 9325 9308 9335 9334 9333 9274 9300 9301 9326 9396 9403 9380 9458 9551 9593 9630 9649 9649 9656 9721 9755 9759 9793 9852 9804 9782 9857 9875 9806 9739 9660 9622 9577 9568 9552 9581 9550 9564 9550 9587 9602 9662 9641 9635 9630 9608 9629 9638 9704 9808 9878 9887 9958 9978 10042 10127 10188 10303 10324 10340 10341 10356 10361 10399 10463 10515 10539 10615 10654 10682 10727 10743 10752 10759 10751 10684 10707 10723 10686 10686 10751 10770 10696 10687 10734 10736 10787 10814 10837 10861 10857 10882 10938 10954 10991 11083 11075 11056 11072 11092 11051 11058 11082 11093 11146 11195 11265 11335 11309 11261 11199 11153 11170 11228 11240 11197 11131 11108 11161 11204 11201 11196 11245 11278 11282 11316 11284 11289 11334 11318 11385 11404 11475 11552 11634 11661 11724 11743 11790 11902 11977 11997 11775 11776 11776 11776 11776 11778 12129 12157 12258 12303 12309 12358 12439 12513 12554 12608 12663 12664 12705 12777 12785 12781 12762 12790 12731 12662 12680 12726 12681 12679 12718 12723 12684 12682 12669 12665 12698 12699 12701 12673 12719 12786 12772 12803 12890 12981 13076 13124 13177 13188 13235 13335 13435 13575 13634 13756 13808 13882 13905 13973 14013 14004
21152 21140 21136 21076 21043 21052 21058 21082 21164 21222 21322 21292 21239 21294 21303 21325 21345 21344 21312 21243 21241 21160 21132 21074 21082 21090 21061 21132 21182 21170 21205 21164 21166 21154 21146 21127 21027 20991 21008 20983 21003 20961 20883 20862 20838 20742 20657 20742 20771 20737 20755 20690 20662 20652 20659 20585 20434 20332 20276 20234 20197 20114 20033 19958 19923 19890 19868 19740 19605 19559 19477 19450 19459 19443 19470 19409 19380 19373 19356 19316 19331 19275 19213 19199 19113 19092 19053 18942 18900 18819 18729 18653 18523 18437 18366 18364 18309 18181 18119 18109 18123 17735 17735 17735 17735 17735 17680 17659 17618 17558 17449 17467 17530 17519 17508 17425 17408 17396 17343 17370 17391 17362 17421 17456 17470 17475 17510 17534 17528 17478 17506 17489 17480 17453 17454 17439 17492 17530 17579 17507 17401 17351 17336 17297 17210 17130 17066 17037 17046 16941 16917 16795 16713 16614 16488 16463 16399 16372 16331 16384 16395 16403 16399 16320 16252 16256 16262 16253 16236 16212 16195 16109 16034 15966 15941 15883 15867 15821 15792 15767 15754 15727 15715 15523 15311 15162 15065 14919 14724 14609 14472 14319 14244 14110 13966 13864 13783 13653 13539 13485 13400 13262 13119 13006 12873 12827 12757 12677 12613 12572 12508 12429 12365 12209 12096 12014 11971 11853 11797 11720 11687 11583 11496 11416 11345 11218 11081 10930 10803 10731 10691 10633 10511 10425 10352 10315 10227 10115 10035 9954 9881 9838 9766 9749 9680 9678 9679 9600 9603 9610 9577 9538 9541 9519 9458 9430 9423 9397 9363 9422 9542 9587 9567 9597 9637 9596 9621 9614 9546 9553 9572 9572 9583 9621 9612 9599 9638 9602 9573 9535 9541 9508 9494 9495 9457 9475 9530 9468 9449 9454 9392 9378 9297 9227 9159 9127 9155 9175 9230 9276 9262 9298 9321 9287 9232 9242 9274 9301 9390 9422 9372 9454 9553 9596 9646 9667 9665 9658 9685 9762 9783 9792 9750 9738 9775 9791 9811 9714 9673 9619 9573 9539 9551 9572 9581 9593 9607 9575 9584 9596 9651 9637 9652 9677 9630 9646 9641 9653 9729 9784 9800 9877 9911 10028 10135 10219 10248 10293 10343 10369 10335 10330 10382 10421 10529 10545 10568 10593 10566 10613 10682 10668 10663 10636 10626 10690 10685 10689 10678 10675 10704 10734 10719 10754 10762 10785 10853 10879 10948 10917 10945 10997 11024 11073 11105 11092 11129 11132 11144 11130 11083 11124 11159 11154 11220 11283 11336 11298 11221 11196 11194 11213 11218 11237 11215 11159 11114 11148 11210 11174 11218 11230 11245 11271 11310 11311 11280 11338 11378 11390 11377 11440 11513 11628 11692 11724 11779 11843 11934 11950 12008 11776 11777 11777 11777 11777 11778 12086 12146 12157 12216 12273 12363 12407 12500 12564 12593 12645 12616 12673 12731 12764 12775 12719 12726 12642 12610 12613 12593 12610 12595 12598 12580 12617 12579 12576 12618 12614 12609 12633 12581 12655 12683 12733 12722 12807 12874 12946 13052 13096 13137 13216 13335 13399 13527 13616 13663 13764 13828 13887 13928 13937 13961
21246 21191 21182 21101 21079 21111 21085 21154 21235 21313 21371 21333 21344 21374 21406 21445 21432 21398 21364 21329 21290 21223 21103 21089 21111 21127 21129 21208 21258 21300 21318 21287 21199 21203 21193 21144 21076 21069 21060 20996 20989 20922 20875 20855 20831 20767 20672 20681 20714 20717 20684 20698 20690 20698 20688 20578 20437 20344 20288 20240 20178 20090 19992 19911 19866 19862 19805 19705 19563 19478 19406 19439 19423 19385 19335 19338 19315 19304 19288 19256 19267 19228 19180 19179 19123 19094 19058 18926 18851 18822 18770 18682 18586 18512 18389 18341 18295 18234 18163 18188 18172 17761 17761 17761 17761 17761 17668 17646 17599 17544 17447 17474 17496 17506 17466 17408 17371 17353 17324 17356 17366 17393 17457 17442 17447 17442 17486 17499 17452 17425 17458 17472 17425 17413 17363 17374 17350 17399 17464 17408 17331 17324 17323 17261 17196 17100 16999 16954 16934 16855 16807 16755 16651 16558 16457 16365 16308 16285 16270 16292 16297 16277 16321 16298 16223 16222 16190 16213 16226 16223 16160 16137 16053 15983 15883 15876 15838 15816 15799 15797 15818 15776 15724 15510 15317 15144 14974 14825 14665 14587 14460 14322 14200 14113 13981 13841 13717 13600 13510 13414 13327 13230 13075 12937 12841 12774 12732 12657 12585 12508 12492 12419 12313 12182 12048 11985 11951 11906 11810 11739 11675 11561 11471 11362 11308 11185 11053 10917 10821 10729 10638 10624 10564 10453 10405 10306 10224 10083 9991 9945 9908 9892 9850 9817 9736 9698 9709 9672 9677 9657 9640 9576 9569 9543 9474 9470 9452 9423 9397 9451 9492 9541 9563 9580 9572 9617 9609 9581 9530 9509 9531 9550 9562 9595 9621 9671 9664 9657 9646 9628 9622 9601 9543 9526 9521 9553 9526 9513 9514 9507 9470 9395 9321 9215 9162 9130 9149 9135 9149 9218 9260 9247 9257 9221 9200 9208 9262 9342 9385 9409 9412 9482 9534 9560 9646 9659 9675 9698 9712 9716 9759 9738 9697 9715 9723 9753 9734 9654 9608 9596 9566 9565 9561 9524 9540 9567 9618 9620 9601 9635 9653 9664 9663 9679 9633 9642 9692 9649 9669 9688 9746 9826 9905 10044 10149 10209 10211 10280 10402 10403 10369 10344 10367 10401 10491 10511 10546 10513 10504 10504 10568 10604 10600 10586 10625 10627 10689 10701 10705 10662 10669 10712 10729 10773 10785 10812 10860 10939 10984 10980 10986 11035 11047 11084 11133 11144 11175 11157 11151 11145 11113 11157 11176 11164 11201 11281 11332 11277 11245 11231 11206 11224 11217 11205 11227 11199 11165 11201 11182 11197 11275 11297 11263 11275 11314 11291 11327 11352 11397 11404 11376 11460 11492 11600 11696 11728 11764 11829 11933 11972 12054 12051 11780 11780 11780 11780 11780 12038 12094 12139 12141 12246 12348 12396 12430 12513 12539 12597 12616 12671 12671 12688 12741 12711 12651 12602 12499 12523 12500 12520 12484 12466 12502 12535 12532 12530 12581 12604 12574 12546 12546 12590 12638 12656 12671 12759 12797 12903 12977 13043 13072 13208 13284 13378 13478 13521 13587 13681 13815 13834 13836 13858 13929
21197 21160 21147 21109 21120 21113 21110 21185 21224 21318 21379 21360 21393 21433 21485 21456 21453 21420 21381 21315 21338 21239 21193 21160 21198 21196 21205 21270 21270 21319 21381 21345 21291 21235 21211 21189 21138 21137 21146 21094 21023 20983 20942 20876 20797 20728 20674 20702 20742 20738 20720 20702 20690 20691 20712 20629 20492 20376 20308 20229 20166 20086 20037 19917 19897 19851 19768 19704 19573 19503 19400 19446 19451 19385 19360 19353 19333 19302 19284 19263 19288 19194 19170 19148 19093 19081 19024 18921 18835 18802 18713 18662 18588 18482 18413 18381 18351 18264 18194 18207 18190 17789 17789 17789 17789 17789 17708 17644 17598 17514 17435 17453 17464 17463 17413 17408 17367 17338 17251 17325 17348 17339 17373 17297 17319 17323 17290 17318 17347 17346 17386 17405 17377 17341 17291 17283 17269 17322 17363 17352 17301 17271 17217 17143 17076 17022 16910 16894 16868 16796 16768 16667 16582 16517 16436 16366 16294 16241 16212 16230 16246 16243 16230 16222 16160 16160 16161 16166 16157 16134 16035 15954 15910 15805 15752 15773 15726 15745 15709 15741 15750 15701 15674 15510 15324 15166 14981 14812 14659 14540 14446 14357 14215 14061 13958 13836 13668 13524 13438 13340 13239 13116 13008 12907 12837 12735 12669 12599 12518 12418 12380 12312 12205 12128 12031 11923 11893 11836 11726 11668 11566 11467 11429 11302 11222 11166 11076 10958 10807 10660 10549 10546 10486 10382 10296 10212 10155 10071 10000 9986 9942 9922 9864 9820 9785 9738 9718 9709 9697 9737 9719 9611 9602 9532 9490 9478 9489 9460 9454 9471 9519 9544 9575 9580 9581 9642 9637 9583 9613 9617 9613 9587 9540 9560 9601 9615 9641 9629 9628 9648 9611 9594 9585 9535 9531 9497 9500 9452 9446 9441 9412 9367 9348 9202 9142 9178 9147 9186 9210 9240 9245 9265 9250 9234 9243 9252 9230 9284 9357 9430 9483 9510 9595 9653 9675 9690 9651 9677 9695 9741 9735 9763 9700 9689 9706 9730 9725 9720 9684 9605 9591 9564 9593 9554 9555 9604 9644 9637 9597 9635 9649 9639 9690 9703 9662 9653 9712 9685 9687 9725 9716 9793 9871 9995 10128 10173 10172 10250 10278 10307 10327 10279 10317 10403 10432 10467 10460 10452 10460 10463 10493 10489 10527 10546 10579 10603 10660 10667 10660 10666 10710 10749 10797 10817 10816 10862 10856 10913 10962 10952 11006 11014 11041 11087 11118 11161 11164 11138 11154 11122 11074 11155 11175 11215 11258 11293 11272 11240 11232 11216 11249 11208 11201 11237 11235 11180 11188 11224 11269 11291 11299 11336 11306 11306 11296 11295 11358 11359 11399 11375 11360 11456 11557 11646 11721 11731 11767 11836 11921 11940 12035 12072 11780 11780 11780 11780 11780 12027 12112 12176 12189 12269 12321 12362 12362 12448 12511 12516 12494 12542 12612 12627 12658 12643 12592 12507 12435 12397 12402 12419 12434 12425 12451 12466 12428 12488 12538 12543 12510 12549 12560 12557 12613 12601 12613 12690 12796 12831 12921 12970 13062 13148 13239 13362 13416 13501 13582 13691 13802 13776 13805 13836 13909
21188 21172 21157 21144 21108 21157 21175 21208 21216 21299 21383 21404 21409 21492 21551 21544 21535 21466 21355 21338 21376 21281 21232 21236 21265 21283 21277 21320 21323 21327 21395 21337 21323 21284 21250 21214 21232 21250 21219 21122 21034 21010 21014 20895 20811 20777 20697 20696 20757 20785 20780 20734 20734 20714 20748 20650 20497 20389 20301 20259 20166 20090 20024 19949 19916 19828 19769 19694 19567 19506 19423 19449 19437 19365 19338 19317 19346 19343 19292 19306 19263 19193 19188 19102 19046 19026 18945 18923 18856 18787 18689 18598 18543 18504 18435 18436 18400 18320 18276 18227 18178 17803 17803 17803 17803 17803 17713 17666 17616 17503 17388 17418 17409 17376 17360 17329 17334 17288 17188 17245 17291 17274 17250 17171 17149 17131 17155 17237 17273 17308 17338 17347 17325 17234 17208 17207 17176 17239 17261 17215 17222 17198 17135 17074 16967 16894 16866 16856 16805 16794 16740 16631 16482 16403 16373 16326 16246 16227 16194 16150 16135 16134 16170 16127 16137 16135 16085 16075 16065 16013 15917 15853 15749 15679 15653 15676 15665 15688 15677 15721 15704 15631 15612 15437 15325 15160 14975 14834 14677 14562 14450 14345 14214 14053 13918 13754 13643 13520 13374 13321 13216 13085 13003 12904 12771 12704 12632 12494 12411 12389 12310 12226 12155 12088 11962 11881 11861 11726 11628 11560 11482 11408 11349 11251 11161 11124 11040 10908 10744 10600 10512 10453 10367 10322 10242 10203 10148 10072 9990 9988 9971 9944 9934 9847 9785 9802 9757 9749 9757 9756 9736 9675 9669 9620 9542 9499 9493 9512 9493 9504 9491 9537 9608 9600 9621 9639 9630 9630 9667 9635 9637 9608 9574 9624 9615 9622 9667 9689 9657 9618 9622 9638 9626 9528 9481 9487 9445 9408 9433 9381 9389 9365 9319 9231 9159 9170 9194 9199 9266 9259 9245 9284 9297 9315 9276 9261 9245 9303 9357 9438 9495 9531 9624 9698 9731 9690 9689 9732 9731 9754 9756 9759 9716 9699 9690 9704 9726 9706 9704 9639 9631 9618 9663 9582 9566 9612 9662 9604 9591 9635 9684 9680 9737 9768 9741 9719 9752 9695 9688 9713 9731 9802 9871 9978 10061 10112 10128 10148 10218 10229 10224 10251 10313 10393 10422 10442 10423 10411 10386 10386 10374 10415 10460 10481 10475 10527 10624 10658 10657 10713 10744 10809 10817 10821 10889 10894 10903 10921 10980 10978 11003 11035 11091 11097 11133 11134 11099 11081 11103 11070 11088 11119 11178 11215 11281 11306 11276 11249 11201 11206 11234 11213 11202 11206 11223 11224 11202 11283 11312 11340 11349 11372 11364 11350 11306 11355 11424 11435 11407 11396 11393 11473 11599 11675 11735 11731 11777 11799 11877 11916 12018 12038 11782 11782 11782 11782 11782 12009 12082 12161 12239 12229 12275 12303 12321 12357 12435 12417 12405 12452 12542 12588 12630 12596 12511 12475 12379 12348 12321 12299 12323 12357 12390 12398 12354 12427 12498 12506 12472 12486 12565 12549 12585 12568 12592 12659 12780 12816 12879 12982 13081 13177 13250 13330 13370 13495 13586 13689 13796 13786 13783 13857 13895
21198 21213 21203 21214 21206 21210 21197 21213 21238 21342 21443 21418 21446 21552 21584 21603 21543 21502 21430 21375 21413 21324 21252 21240 21253 21305 21325 21364 21410 21431 21508 21396 21345 21326 21261 21278 21249 21275 21272 21152 21097 21082 21020 20965 20849 20763 20691 20744 20792 20826 20776 20738 20741 20721 20771 20604 20483 20355 20244 20235 20133 20050 20021 19950 19908 19790 19764 19684 19563 19509 19400 19402 19421 19338 19290 19266 19320 19303 19329 19298 19234 19191 19170 19110 19076 19009 18967 18889 18813 18779 18742 18663 18618 18606 18516 18481 18487 18437 18387 18282 18242 17816 17816 17816 17816 17816 17747 17663 17608 17469 17362 17355 17342 17341 17304 17300 17286 17225 17113 17190 17191 17209 17157 17104 17106 17037 17050 17094 17164 17199 17245 17192 17194 17186 17182 17158 17100 17156 17126 17141 17148 17148 17080 17004 16964 16890 16785 16765 16725 16727 16682 16596 16461 16403 16353 16243 16214 16172 16163 16094 16061 16079 16075 16068 16031 15984 15941 15908 15910 15885 15802 15729 15689 15645 15601 15630 15599 15657 15646 15646 15607 15594 15555 15427 15237 15160 15028 14843 14705 14578 14406 14297 14158 13988 13834 13703 13601 13474 13382 13304 13180 13083 12919 12805 12724 12633 12566 12429 12332 12274 12205 12158 12055 11974 11874 11822 11771 11677 11578 11488 11460 11341 11293 11208 11105 11005 10971 10836 10684 10582 10494 10399 10352 10272 10173 10142 10141 10034 9987 9980 9968 9942 9938 9852 9832 9820 9796 9778 9774 9740 9748 9698 9654 9581 9545 9547 9533 9553 9562 9594 9589 9596 9686 9636 9648 9639 9647 9620 9638 9654 9676 9626 9638 9695 9697 9722 9707 9751 9732 9676 9662 9608 9628 9536 9506 9484 9417 9426 9419 9391 9340 9340 9293 9246 9202 9159 9206 9248 9304 9232 9232 9289 9256 9264 9227 9232 9255 9295 9406 9455 9533 9535 9577 9648 9726 9717 9744 9748 9800 9814 9787 9770 9801 9743 9686 9681 9686 9695 9715 9678 9705 9693 9676 9617 9612 9644 9662 9601 9599 9596 9654 9719 9734 9760 9759 9736 9762 9732 9708 9714 9753 9789 9859 9930 9999 10080 10105 10136 10192 10217 10239 10271 10309 10373 10365 10409 10391 10361 10358 10329 10322 10382 10393 10443 10454 10488 10558 10571 10607 10687 10768 10838 10821 10863 10883 10880 10910 10975 10974 11010 11051 11061 11076 11096 11162 11115 11129 11094 11061 11108 11145 11200 11229 11225 11235 11265 11219 11251 11270 11288 11281 11246 11245 11243 11233 11240 11254 11338 11349 11374 11369 11391 11356 11330 11329 11351 11426 11393 11388 11413 11467 11500 11622 11699 11767 11776 11760 11824 11859 11908 11927 11792 11786 11786 11786 11786 11784 12071 12128 12217 12252 12297 12301 12296 12298 12363 12379 12349 12352 12343 12400 12495 12517 12476 12473 12400 12386 12361 12316 12269 12212 12294 12314 12307 12322 12376 12433 12430 12378 12462 12475 12487 12515 12527 12575 12631 12723 12772 12846 12920 13043 13150 13269 13292 13338 13440 13530 13644 13762 13748 13775 13807 13855
21257 21248 21239 21250 21257 21238 21172 21222 21291 21347 21443 21466 21501 21588 21639 21625 21587 21501 21459 21440 21391 21330 21280 21302 21295 21365 21403 21419 21456 21521 21583 21516 21396 21370 21323 21293 21301 21353 21347 21226 21166 21113 21045 20977 20930 20797 20723 20732 20782 20829 20828 20786 20789 20756 20761 20617 20457 20362 20249 20190 20090 20038 19968 19890 19871 19765 19709 19632 19601 19494 19413 19399 19357 19288 19282 19254 19275 19320 19361 19295 19229 19152 19135 19123 19100 19037 18947 18883 18823 18785 18733 18691 18697 18677 18596 18596 18579 18477 18439 18372 18359 17843 17843 17843 17843 17843 17749 17669 17614 17499 17400 17333 17313 17281 17295 17296 17242 17188 17081 17113 17131 17111 17109 17061 17001 16963 16926 16957 17021 17066 17093 17069 17077 17084 17108 17074 17079 17092 17044 17046 17091 17068 17033 16980 16902 16796 16750 16694 16689 16640 16649 16511 16417 16342 16274 16208 16125 16114 16099 16040 15995 15957 15965 15954 15900 15880 15856 15803 15790 15756 15708 15676 15596 15542 15507 15559 15581 15633 15635 15572 15536 15505 15497 15359 15214 15128 15026 14866 14753 14571 14415 14298 14145 13969 13796 13696 13574 13426 13336 13221 13158 13040 12877 12720 12619 12566 12456 12363 12296 12204 12135 12050 11952 11922 11842 11774 11700 11572 11495 11479 11425 11323 11282 11153 11040 10944 10913 10802 10687 10574 10466 10402 10344 10244 10140 10132 10084 10050 9972 9949 9968 9968 9908 9898 9939 9904 9859 9829 9786 9769 9737 9668 9658 9626 9570 9552 9585 9618 9601 9630 9628 9684 9741 9719 9724 9667 9618 9609 9663 9668 9675 9656 9694 9716 9730 9764 9806 9817 9792 9686 9645 9602 9604 9530 9473 9456 9431 9413 9375 9346 9323 9286 9270 9258 9195 9179 9208 9257 9298 9246 9227 9260 9244 9243 9232 9258 9223 9321 9410 9488 9510 9529 9582 9628 9734 9740 9740 9807 9820 9853 9855 9840 9855 9818 9726 9696 9673 9677 9726 9762 9778 9767 9747 9716 9710 9673 9684 9600 9554 9594 9600 9702 9743 9751 9744 9747 9811 9738 9726 9767 9759 9832 9877 9893 9910 9985 10045 10093 10159 10221 10223 10268 10355 10330 10358 10407 10414 10360 10365 10327 10306 10307 10368 10375 10431 10493 10504 10532 10588 10681 10782 10854 10873 10894 10880 10934 10954 10988 11019 11057 11079 11059 11049 11092 11139 11154 11140 11083 11084 11158 11186 11248 11275 11283 11237 11221 11194 11209 11278 11301 11279 11311 11344 11314 11308 11347 11330 11346 11411 11425 11385 11395 11357 11344 11349 11369 11401 11373 11394 11445 11506 11558 11647 11740 11808 11836 11808 11791 11816 11850 11891 11795 11791 11791 11791 11791 11787 12106 12185 12212 12294 12316 12335 12358 12335 12299 12263 12290 12257 12287 12313 12409 12447 12439 12403 12388 12388 12366 12329 12215 12144 12181 12248 12275 12300 12329 12362 12322 12336 12404 12411 12431 12489 12503 12579 12588 12657 12718 12808 12894 13041 13150 13237 13286 13370 13424 13506 13598 13720 13769 13786 13757 13756
21336 21301 21304 21272 21261 21248 21231 21265 21331 21425 21515 21543 21537 21599 21676 21645 21563 21492 21479 21461 21406 21379 21397 21421 21446 21437 21456 21524 21571 21594 21625 21525 21395 21364 21313 21379 21366 21388 21389 21295 21255 21169 21074 21046 21033 20915 20776 20791 20770 20796 20824 20803 20771 20709 20687 20614 20466 20377 20280 20209 20139 20064 19984 19947 19855 19772 19656 19592 19574 19437 19342 19365 19340 19283 19252 19224 19226 19262 19303 19290 19212 19170 19094 19094 19034 19001 18895 18880 18834 18820 18781 18696 18663 18659 18639 18617 18600 18520 18426 18388 18307 17868 17868 17868 17868 17868 17831 17714 17634 17550 17426 17396 17324 17293 17231 17230 17196 17075 17010 17039 17075 17050 17052 16998 16893 16871 16826 16877 16917 16977 16998 16966 16991 17001 17024 17002 17023 16992 16963 16994 17022 17018 16962 16912 16857 16782 16691 16672 16640 16570 16550 16427 16401 16348 16285 16196 16115 16095 16105 16014 15933 15885 15896 15905 15856 15818 15773 15727 15675 15685 15639 15561 15484 15503 15491 15515 15569 15577 15569 15563 15498 15504 15530 15376 15223 15117 14997 14863 14727 14533 14385 14278 14142 13985 13787 13672 13572 13450 13329 13246 13149 12991 12840 12738 12601 12556 12453 12331 12259 12220 12114 12064 11955 11870 11799 11756 11682 11555 11459 11426 11366 11283 11218 11133 11025 10945 10929 10774 10651 10592 10517 10451 10369 10228 10140 10102 10090 10062 9993 9990 9991 9937 9917 9920 9931 9882 9851 9789 9774 9789 9769 9696 9677 9637 9636 9630 9624 9662 9695 9687 9669 9734 9749 9732 9743 9686 9661 9694 9672 9710 9710 9703 9711 9712 9733 9766 9823 9826 9796 9704 9706 9617 9594 9546 9515 9489 9477 9430 9385 9333 9335 9280 9254 9252 9205 9176 9210 9201 9222 9246 9225 9212 9225 9264 9268 9287 9254 9329 9395 9479 9529 9542 9600 9596 9678 9675 9749 9784 9801 9820 9835 9876 9902 9784 9694 9706 9680 9684 9713 9706 9728 9699 9715 9708 9683 9702 9709 9598 9555 9595 9589 9693 9746 9750 9722 9728 9727 9698 9680 9732 9743 9811 9840 9852 9864 9898 9971 10044 10087 10187 10224 10277 10328 10296 10326 10294 10326 10303 10340 10298 10297 10337 10360 10384 10385 10424 10457 10533 10574 10629 10736 10835 10893 10896 10868 10936 10981 11013 11021 11071 11131 11134 11097 11099 11088 11132 11090 11074 11062 11170 11190 11267 11274 11215 11183 11193 11195 11244 11292 11287 11254 11277 11265 11230 11273 11292 11338 11375 11448 11435 11434 11427 11419 11421 11417 11412 11428 11478 11485 11535 11550 11619 11690 11741 11869 11819 11818 11819 11806 11828 11897 11795 11793 11793 11793 11793 11788 12117 12169 12230 12273 12257 12251 12274 12303 12259 12229 12235 12184 12201 12243 12274 12335 12348 12332 12351 12334 12288 12230 12127 12045 12111 12157 12231 12295 12297 12354 12300 12304 12315 12376 12443 12438 12527 12558 12556 12614 12671 12751 12826 12909 13037 13118 13155 13232 13374 13471 13533 13657 13717 13769 13784 13746
21365 21360 21344 21345 21324 21343 21325 21393 21409 21475 21528 21551 21608 21677 21709 21625 21603 21541 21516 21462 21442 21496 21514 21513 21545 21540 21568 21593 21628 21585 21607 21487 21427 21397 21352 21422 21441 21393 21396 21382 21334 21258 21165 21125 21100 21012 20884 20835 20818 20810 20833 20798 20759 20709 20657 20579 20472 20388 20278 20201 20132 20059 19998 19946 19894 19784 19650 19586 19504 19449 19332 19352 19349 19325 19268 19230 19240 19228 19256 19235 19233 19124 19054 19010 18984 18932 18863 18881 18876 18851 18781 18742 18654 18693 18682 18628 18615 18498 18444 18351 18286 17880 17880 17880 17880 17880 17874 17746 17646 17557 17514 17396 17325 17237 17205 17145 17127 17006 16930 16966 16985 17002 16990 16945 16841 16786 16728 16751 16832 16853 16926 16888 16890 16897 16927 16938 16935 16940 16918 16903 16926 16939 16892 16856 16813 16771 16693 16624 16559 16467 16438 16369 16342 16333 16273 16202 16100 16078 16094 15992 15911 15865 15848 15822 15783 15761 15691 15658 15574 15598 15586 15511 15435 15451 15422 15472 15509 15544 15548 15533 15492 15491 15541 15387 15272 15144 14964 14803 14663 14547 14370 14277 14132 13933 13767 13716 13603 13479 13354 13259 13103 12983 12855 12736 12617 12499 12394 12343 12241 12227 12155 12070 12009 11910 11816 11718 11652 11580 11484 11390 11329 11265 11210 11161 11064 11001 10906 10789 10678 10615 10540 10444 10336 10240 10109 10100 10082 10011 9986 9993 9994 9928 9915 9889 9903 9881 9819 9811 9772 9764 9778 9695 9663 9672 9655 9656 9709 9698 9729 9739 9773 9809 9811 9749 9749 9771 9751 9771 9729 9692 9719 9692 9712 9753 9790 9797 9819 9791 9791 9737 9707 9672 9648 9643 9587 9547 9479 9409 9367 9371 9378 9354 9274 9220 9222 9220 9260 9232 9189 9189 9249 9223 9221 9293 9320 9359 9337 9388 9427 9491 9545 9588 9584 9590 9657 9664 9706 9745 9781 9807 9845 9849 9900 9788 9712 9689 9650 9637 9682 9718 9695 9678 9671 9701 9680 9661 9685 9620 9563 9595 9590 9679 9742 9720 9647 9665 9697 9703 9662 9690 9777 9764 9815 9832 9838 9852 9929 9999 10030 10102 10219 10243 10307 10305 10247 10221 10242 10270 10273 10291 10279 10307 10355 10354 10394 10395 10454 10550 10594 10653 10706 10801 10880 10903 10902 10949 11039 11064 11088 11088 11144 11131 11098 11088 11075 11087 11068 11063 11086 11170 11220 11238 11314 11244 11175 11162 11159 11240 11259 11229 11227 11200 11180 11168 11218 11292 11346 11398 11424 11480 11505 11507 11492 11448 11428 11417 11470 11516 11606 11622 11645 11680 11704 11780 11874 11883 11838 11862 11830 11890 11929 11798 11796 11796 11796 11796 11788 12157 12159 12184 12253 12238 12227 12253 12263 12234 12204 12185 12155 12186 12227 12229 12202 12256 12273 12239 12247 12233 12158 12056 11963 12053 12121 12165 12255 12287 12292 12256 12260 12281 12335 12414 12443 12515 12575 12565 12610 12654 12744 12765 12823 12941 13061 13102 13143 13300 13425 13537 13613 13687 13721 13740 13777
21360 21417 21445 21419 21403 21367 21366 21435 21456 21525 21613 21640 21672 21703 21768 21681 21649 21599 21541 21514 21532 21521 21588 21577 21604 21614 21619 21647 21621 21591 21633 21512 21466 21447 21449 21481 21455 21456 21451 21423 21395 21323 21242 21163 21133 21016 20904 20846 20844 20815 20801 20781 20751 20673 20634 20568 20506 20443 20330 20263 20214 20085 20030 19929 19867 19763 19587 19544 19469 19388 19274 19305 19314 19274 19218 19183 19206 19204 19220 19196 19181 19121 19081 19013 18972 18919 18903 18867 18872 18827 18767 18743 18697 18687 18740 18655 18546 18470 18442 18382 18269 17880 17890 17890 17890 17890 17920 17828 17708 17618 17564 17416 17314 17235 17115 17035 17002 16913 16813 16843 16890 16910 16882 16821 16771 16743 16675 16682 16722 16769 16824 16813 16828 16866 16858 16830 16838 16806 16816 16802 16806 16801 16794 16741 16709 16638 16587 16508 16457 16387 16346 16364 16352 16322 16300 16249 16158 16111 16073 15967 15901 15865 15846 15773 15692 15649 15593 15537 15474 15478 15516 15428 15427 15402 15337 15371 15411 15475 15505 15531 15499 15478 15491 15328 15201 15065 14874 14754 14601 14462 14333 14198 14057 13940 13775 13687 13593 13429 13341 13187 13049 12959 12832 12675 12582 12422 12317 12243 12179 12145 12085 12049 11961 11833 11751 11661 11542 11504 11449 11349 11296 11231 11125 11044 11002 10898 10839 10765 10649 10572 10528 10431 10366 10223 10129 10118 10071 10049 10001 10016 10003 9934 9932 9904 9912 9917 9853 9808 9774 9799 9764 9721 9706 9706 9741 9723 9751 9757 9729 9756 9737 9757 9767 9754 9787 9802 9800 9856 9815 9806 9815 9828 9795 9790 9830 9788 9777 9784 9797 9721 9684 9644 9652 9671 9629 9589 9516 9429 9412 9383 9390 9368 9269 9257 9189 9202 9234 9235 9212 9214 9220 9196 9193 9247 9334 9380 9356 9410 9402 9435 9484 9510 9564 9563 9643 9671 9732 9736 9793 9769 9813 9848 9849 9773 9729 9724 9657 9702 9713 9691 9705 9717 9711 9708 9729 9687 9665 9596 9564 9584 9569 9663 9719 9667 9609 9658 9621 9636 9693 9707 9810 9794 9843 9831 9815 9876 9899 9978 9980 10076 10133 10168 10251 10234 10227 10196 10171 10227 10192 10231 10209 10237 10281 10322 10444 10478 10470 10539 10634 10725 10773 10844 10872 10926 10928 10935 10997 11049 11046 11061 11135 11133 11127 11097 11097 11111 11161 11159 11113 11168 11221 11261 11302 11244 11166 11147 11193 11230 11240 11192 11188 11182 11189 11184 11251 11321 11375 11425 11455 11470 11486 11509 11554 11526 11548 11534 11540 11592 11670 11672 11690 11727 11810 11853 11910 11880 11873 11879 11864 11900 11982 11801 11801 11801 11801 11801 12150 12152 12144 12201 12252 12244 12229 12252 12248 12246 12204 12187 12147 12142 12157 12116 12124 12134 12142 12095 12126 12106 12076 11991 11866 11979 12037 12080 12155 12162 12173 12225 12250 12303 12338 12367 12433 12484 12470 12476 12534 12548 12642 12693 12739 12838 12948 13009 13063 13243 13348 13473 13552 13592 13675 13738 13784
21357 21428 21496 21483 21447 21440 21442 21472 21515 21567 21647 21675 21750 21759 21788 21722 21707 21643 21591 21593 21578 21584 21631 21614 21648 21664 21628 21635 21670 21654 21611 21529 21511 21504 21502 21513 21484 21485 21523 21442 21412 21370 21359 21260 21185 21043 20958 20927 20837 20797 20804 20793 20762 20713 20653 20592 20555 20462 20403 20313 20254 20154 20073 19937 19862 19693 19579 19510 19478 19365 19276 19243 19245 19204 19138 19123 19133 19152 19212 19226 19190 19146 19082 18987 18937 18937 18894 18851 18862 18802 18705 18680 18684 18735 18747 18647 18516 18468 18414 18389 18303 17892 17910 17910 17910 17910 17928 17837 17740 17657 17577 17479 17324 17211 17053 16944 16897 16826 16698 16709 16768 16752 16770 16748 16715 16650 16612 16665 16661 16695 16684 16727 16733 16769 16763 16764 16737 16731 16760 16679 16646 16682 16656 16646 16609 16582 16534 16484 16397 16351 16256 16286 16314 16274 16297 16223 16155 16092 16087 16006 15935 15898 15805 15710 15607 15536 15485 15424 15398 15386 15401 15384 15381 15318 15290 15307 15375 15400 15467 15489 15535 15495 15492 15299 15122 14943 14818 14684 14505 14382 14276 14127 14011 13901 13737 13659 13529 13390 13311 13177 13016 12868 12760 12625 12507 12408 12273 12208 12155 12119 12071 11998 11922 11814 11679 11563 11484 11454 11369 11328 11265 11147 11046 10978 10935 10858 10785 10689 10595 10524 10489 10428 10339 10210 10118 10063 10014 9990 9996 9990 9977 9967 9902 9908 9879 9902 9904 9862 9828 9817 9755 9712 9734 9769 9777 9779 9751 9786 9790 9773 9715 9762 9755 9787 9774 9862 9906 9925 9940 9892 9882 9914 9898 9881 9846 9806 9786 9767 9804 9754 9695 9690 9683 9659 9631 9612 9571 9477 9430 9445 9414 9349 9318 9252 9203 9226 9249 9252 9207 9232 9200 9176 9210 9278 9346 9377 9386 9388 9428 9459 9478 9472 9509 9582 9653 9719 9735 9758 9795 9790 9772 9775 9834 9826 9790 9733 9694 9714 9719 9729 9689 9737 9729 9707 9741 9688 9634 9630 9604 9632 9599 9634 9658 9648 9624 9643 9603 9657 9690 9721 9786 9798 9822 9793 9799 9866 9908 9923 9920 9985 10077 10096 10153 10158 10170 10159 10162 10182 10152 10139 10178 10241 10245 10340 10435 10488 10528 10570 10651 10725 10809 10877 10903 10894 10916 10931 10998 11018 11003 11027 11090 11128 11130 11116 11135 11170 11202 11198 11190 11235 11258 11279 11318 11259 11210 11192 11225 11207 11246 11210 11181 11153 11174 11215 11235 11317 11399 11461 11537 11499 11519 11576 11594 11628 11619 11626 11610 11633 11706 11766 11780 11828 11890 11866 11902 11911 11908 11868 11890 11933 11978 11806 11806 11806 11806 11806 12137 12131 12178 12236 12278 12260 12278 12254 12240 12185 12185 12135 12139 12124 12060 12038 12069 12015 12022 11986 12014 11986 11962 11911 11799 11857 11948 12055 12114 12129 12113 12151 12217 12329 12380 12389 12454 12471 12429 12424 12482 12480 12525 12603 12690 12742 12833 12928 13014 13186 13303 13437 13512 13567 13662 13701 13772
