16863 16857 16795 16645 16555 16468 16440 16371 16328 16350 16361 16299 16203 16094 15934 15913 15845 15718 15639 15576 15483 15413 15312 15222 15197 15051 14934 14938 14989 15015 14996 14984 15037 15065 15039 14987 14981 14988 14963 14915 14865 14833 14831 14745 14678 14601 14515 14477 14415 14378 14400 14372 14408 14318 14284 14269 14211 14152 14141 14169 14200 14207 14250 14269 14227 14172 14116 14094 14057 14081 14051 13991 13919 13925 13934 13883 13875 13787 13750 13715 13657 13614 13612 13533 13475 13415 13412 13309 13271 13270 13236 13191 13202 13174 13167 13195 13228 13246 13225 13261 13253 13272 13238 13305 13378 13412 13421 13413 13377 13329 13315 13325 13310 13279 13193 13124 13033 13039 12988 12938 12876 12845 12835 12766 12729 12601 12528 12467 12398 12327 12204 12072 11920 11804 11739 11686 11676 11583 11458 11309 11224 11162 11119 11090 11057 11039 11068 11007 10900 10896 10860 10737 10565 10543 10473 10454 10389 10358 10384 10269 10132 10128 10062 10034 9988 9952 9943 9886 9876 9807 9762 9743 9693 9618 9587 9526 9411 9385 9303 9308 9281 9182 9120 9024 8952 8929 8901 8914 8927 8904 8882 8960 9001 8963 8985 9067 9144 9195 9210 9241 9259 9307 9382 9412 9391 9318 9279 9212 9116 9046 8981 8979 9029 9034 8985 9026 9061 9029 8992 9083 9193 9303 9404 9407 9411 9434 9494 9529 9573 9605 9587 9708 9768 9797 9833 9762 9743 9707 9659 9670 9661 9625 9549 9542 9578 9538 9510 9545 9605 9590 9551 9580 9599 9629 9687 9763 9848 9908 9912 9970 9996 10068 10194 10141 10140 10205 10242 10377 10481 10529 10607 10662 10744 10839 10925 10964 10990 11008 10983 11033 11073 11172 11242 11227 11202 11150 11111 11151 11206 11242 11259 11232 11195 11200 11150 11212 11257 11247 11291 11252 11275 11257 11277 11305 11285 11215 11206 11202 11173 11097 11071 11068 11006 10966 10867 10944 10995 11026 11045 11105 11222 11282 11312 11329 11409 11407 11439 11497 11608 11665 11733 11818 11917 12003 12103 12136 12222 12345 12425 12465 12462 12453 12485 12566 12637 12635 12667 12670 12703 12654 12620 12598 12576 12542 12505 12521 12498 12530 12563 12460 12387 12284 12191 12209 12280 12368 12473 12537 12547 12598 12607 12622 12639 12630 12675 12653 12652 12618 12632 12772 12882 12946 13020 13014 13054 13114 13124 13213 13254 13268 13293 13326 13422 13491 13525 13557 13568 13625 13709 13721 13759 13728 13737 13834 13883 13922 14003 14111 14233 14352 14425 14429 14372 14352 14346 14381 14368 14353 14306 14239 14203 14262 14272 14303 14333 14349 14419 14448 14426 14467 14527 14541 14590 14647 14644 14603 14586 14569 14540 14524 14566 14511 14481 14523 14629 14685 14763 14747 14786 14839 14934 14991 14998 15048 15044 15106 15205 15224 15217 15186 15202 15119 15073 15065 15026 14972 14936 14974 15013 14999 15015 15002 15043 15011 14953 14914 14936 14950 14944 14928 14944 14993 15052 15024 15027 14989 14969 14997 14998 15090 15161 15140 15153 15150 15155 15187 15194 15175 15216 15190 15168 15152 15093 15107 15085 15028 14956
16882 16872 16861 16700 16612 16564 16497 16442 16408 16391 16418 16330 16220 16154 16006 15939 15845 15763 15723 15655 15548 15429 15374 15289 15217 15107 15029 15012 15024 15053 15080 15104 15152 15163 15132 15062 15033 15009 15002 14987 14904 14925 14905 14812 14775 14715 14630 14595 14571 14539 14545 14536 14465 14406 14383 14331 14279 14226 14167 14219 14245 14280 14335 14367 14320 14312 14269 14220 14177 14182 14163 14111 14007 14003 14031 13937 13886 13844 13806 13814 13750 13743 13688 13615 13576 13570 13561 13448 13388 13354 13261 13289 13259 13247 13289 13291 13293 13289 13264 13295 13319 13337 13334 13393 13449 13531 13580 13533 13482 13475 13483 13486 13439 13406 13345 13253 13205 13135 13078 13039 13001 13002 12939 12866 12798 12757 12672 12558 12496 12406 12341 12216 12049 11993 11922 11837 11836 11673 11600 11457 11393 11327 11283 11295 11264 11200 11187 11114 11055 10988 10933 10799 10648 10560 10513 10486 10465 10424 10452 10334 10208 10211 10143 10138 10116 10063 10062 9992 9933 9894 9908 9799 9711 9654 9605 9546 9457 9445 9371 9342 9279 9221 9161 9086 9016 8977 8934 8944 8926 8915 8916 8956 9001 9023 9031 9092 9197 9216 9284 9350 9404 9453 9489 9502 9479 9431 9451 9371 9302 9240 9188 9200 9183 9181 9176 9163 9168 9175 9081 9170 9292 9422 9513 9479 9507 9573 9635 9684 9719 9744 9739 9800 9856 9913 9924 9925 9892 9810 9797 9738 9705 9654 9615 9606 9602 9620 9593 9615 9697 9665 9587 9596 9624 9650 9713 9783 9871 9919 10010 10015 10099 10190 10256 10221 10198 10234 10284 10417 10507 10556 10622 10712 10841 10900 10981 11026 11044 11039 11052 11090 11169 11236 11288 11280 11330 11294 11261 11276 11297 11306 11304 11285 11259 11290 11234 11250 11321 11297 11364 11286 11258 11276 11295 11309 11278 11282 11254 11254 11222 11177 11117 11097 11007 10966 10890 10969 10998 10993 11014 11106 11239 11291 11343 11364 11396 11398 11418 11524 11585 11627 11734 11789 11875 11968 12089 12161 12201 12347 12411 12421 12436 12502 12589 12580 12620 12621 12692 12691 12693 12674 12653 12634 12631 12566 12535 12508 12523 12548 12516 12450 12397 12276 12192 12251 12291 12352 12436 12452 12515 12547 12578 12605 12611 12590 12631 12638 12603 12571 12575 12665 12736 12807 12909 12914 12971 13045 13038 13124 13169 13189 13206 13301 13373 13410 13495 13533 13554 13643 13708 13758 13778 13725 13724 13780 13859 13956 14018 14140 14226 14312 14422 14388 14322 14321 14341 14364 14358 14324 14332 14244 14209 14245 14265 14294 14313 14373 14416 14400 14398 14494 14583 14579 14609 14649 14661 14603 14583 14558 14527 14497 14497 14468 14472 14554 14642 14706 14719 14751 14753 14817 14869 14909 14930 14965 14978 15089 15149 15164 15121 15119 15068 14984 14964 14911 14882 14900 14858 14851 14903 14923 14911 14886 14878 14901 14917 14844 14839 14853 14897 14905 14920 14969 14994 14994 14963 14951 14946 14972 14954 15030 15094 15058 15074 15052 15089 15139 15121 15171 15189 15130 15143 15106 15060 15020 14996 14896 14873
16959 16936 16875 16809 16707 16672 16580 16549 16503 16471 16450 16331 16263 16190 16143 16049 15907 15849 15779 15732 15635 15498 15393 15372 15299 15209 15175 15159 15124 15117 15118 15197 15234 15208 15242 15164 15112 15080 15068 15031 14984 14971 14946 14856 14813 14744 14730 14726 14733 14721 14679 14646 14562 14509 14466 14396 14330 14294 14221 14266 14344 14360 14438 14445 14443 14448 14411 14323 14279 14286 14243 14197 14149 14118 14107 14037 13938 13898 13892 13870 13810 13823 13786 13758 13732 13681 13653 13520 13450 13389 13295 13333 13315 13347 13383 13349 13353 13323 13340 13351 13389 13416 13416 13520 13564 13665 13712 13676 13652 13655 13657 13654 13590 13512 13472 13403 13371 13298 13233 13209 13174 13118 13054 12945 12873 12845 12775 12694 12643 12510 12441 12351 12226 12167 12062 12023 11935 11804 11684 11594 11535 11503 11444 11465 11437 11383 11305 11229 11168 11047 10990 10875 10754 10625 10552 10520 10497 10502 10458 10390 10313 10266 10266 10219 10201 10173 10169 10129 10048 10017 10011 9850 9752 9698 9606 9541 9487 9465 9431 9354 9339 9247 9193 9112 9066 9055 9000 9009 8980 8983 8949 9022 9035 9077 9136 9201 9233 9248 9296 9377 9523 9545 9628 9612 9625 9575 9566 9545 9465 9429 9348 9387 9397 9363 9365 9345 9332 9303 9226 9309 9421 9520 9574 9591 9591 9630 9730 9789 9803 9857 9878 9949 9972 10022 10040 10011 10011 9969 9948 9893 9790 9709 9668 9634 9651 9675 9737 9729 9747 9729 9663 9634 9661 9731 9768 9852 9930 9992 10079 10111 10190 10213 10290 10306 10285 10345 10390 10490 10559 10607 10665 10754 10891 11015 11095 11077 11108 11128 11166 11231 11297 11320 11353 11398 11402 11405 11351 11347 11405 11419 11406 11417 11372 11359 11323 11349 11334 11329 11377 11349 11272 11277 11289 11260 11288 11335 11354 11320 11319 11271 11204 11121 11037 10969 10937 10977 10986 11003 11042 11159 11227 11318 11382 11377 11436 11414 11443 11500 11517 11586 11674 11783 11850 11989 12109 12147 12229 12313 12394 12419 12466 12549 12641 12632 12627 12649 12657 12667 12725 12712 12716 12699 12700 12649 12587 12579 12572 12531 12485 12434 12368 12244 12149 12204 12319 12343 12369 12422 12536 12542 12591 12552 12547 12599 12624 12549 12516 12506 12526 12596 12644 12700 12776 12853 12876 12963 12990 13005 13062 13085 13094 13200 13322 13355 13453 13513 13584 13674 13710 13733 13802 13760 13769 13818 13881 13958 14006 14133 14232 14334 14429 14341 14314 14335 14325 14322 14297 14315 14321 14294 14241 14247 14237 14245 14302 14349 14357 14402 14425 14492 14608 14650 14637 14660 14641 14597 14534 14478 14452 14467 14462 14492 14478 14548 14608 14660 14668 14722 14718 14766 14815 14824 14898 14946 14938 15001 15065 15064 15081 15042 14972 14886 14853 14824 14767 14776 14744 14767 14814 14805 14775 14744 14765 14804 14854 14811 14774 14818 14813 14833 14887 14880 14898 14883 14916 14914 14877 14912 14947 14955 14989 14964 14937 14947 15005 15037 15076 15082 15123 15105 15104 15070 15052 14958 14879 14808 14757
17028 16990 16991 16933 16827 16769 16677 16653 16570 16526 16513 16394 16350 16292 16289 16183 16054 15948 15885 15795 15732 15649 15574 15506 15412 15348 15350 15276 15294 15254 15190 15241 15308 15284 15352 15288 15220 15214 15212 15165 15081 15035 15031 14958 14917 14859 14815 14818 14829 14783 14779 14754 14691 14610 14480 14441 14374 14343 14257 14301 14368 14394 14495 14479 14419 14419 14435 14407 14379 14371 14358 14331 14246 14197 14204 14150 14044 14035 14001 13981 13964 13978 13935 13899 13890 13830 13775 13650 13614 13559 13465 13474 13499 13513 13521 13482 13489 13483 13512 13528 13531 13549 13546 13622 13660 13728 13818 13779 13728 13694 13711 13655 13610 13635 13630 13542 13403 13367 13297 13275 13216 13214 13140 13095 12994 12921 12865 12805 12738 12605 12501 12462 12368 12243 12121 12042 11987 11840 11732 11701 11632 11601 11536 11516 11541 11449 11357 11278 11179 11091 11044 10939 10791 10707 10600 10586 10514 10542 10528 10481 10402 10348 10312 10298 10259 10226 10176 10164 10122 10110 10106 9934 9839 9761 9670 9612 9562 9477 9459 9436 9380 9293 9204 9177 9144 9122 9081 9106 9068 9100 9065 9145 9178 9234 9243 9296 9298 9303 9329 9413 9554 9570 9640 9664 9659 9630 9567 9549 9502 9457 9435 9481 9518 9461 9438 9460 9468 9411 9358 9395 9459 9565 9650 9626 9677 9707 9829 9883 9874 9890 9908 9995 10071 10089 10159 10116 10042 10013 9991 9944 9918 9873 9836 9790 9762 9793 9783 9802 9779 9742 9679 9679 9718 9797 9871 9868 9931 10018 10062 10118 10228 10296 10319 10318 10321 10368 10424 10508 10565 10652 10722 10835 10965 11006 11130 11137 11111 11161 11177 11224 11277 11316 11327 11328 11321 11361 11309 11334 11347 11403 11364 11362 11391 11339 11326 11329 11354 11409 11486 11411 11366 11362 11339 11321 11354 11355 11420 11397 11329 11265 11234 11160 11098 11024 10975 11032 11036 11096 11144 11217 11239 11340 11363 11388 11417 11454 11500 11510 11550 11622 11717 11795 11880 11999 12068 12136 12217 12269 12390 12393 12471 12518 12626 12571 12564 12629 12685 12712 12721 12674 12698 12693 12655 12640 12567 12596 12596 12548 12502 12490 12412 12314 12206 12269 12338 12338 12354 12373 12449 12511 12551 12544 12526 12532 12494 12509 12461 12433 12429 12497 12589 12645 12761 12816 12870 12916 12979 12992 13060 13085 13119 13217 13302 13371 13472 13506 13535 13661 13741 13767 13787 13815 13812 13818 13869 13937 13991 14097 14193 14255 14385 14341 14298 14302 14232 14217 14195 14245 14226 14229 14177 14164 14173 14227 14266 14281 14292 14325 14344 14434 14549 14543 14549 14572 14555 14513 14487 14473 14433 14402 14398 14422 14487 14502 14499 14589 14623 14693 14706 14786 14807 14813 14895 14873 14897 14962 15016 15023 15063 15042 14978 14931 14850 14807 14812 14802 14803 14820 14795 14805 14776 14739 14742 14726 14757 14750 14711 14771 14799 14802 14847 14827 14848 14868 14859 14809 14804 14836 14908 14898 14961 14905 14906 14958 14975 14964 15013 14979 15029 15074 15055 15016 15013 14940 14820 14775 14743
17088 17056 17080 17010 16920 16860 16789 16734 16702 16661 16573 16504 16491 16454 16449 16299 16208 16084 15998 15921 15817 15749 15715 15618 15576 15495 15464 15416 15412 15383 15294 15311 15355 15394 15450 15404 15380 15351 15314 15281 15205 15184 15106 15093 15018 14980 14886 14899 14892 14875 14880 14845 14760 14638 14505 14487 14415 14394 14313 14382 14426 14479 14496 14471 14455 14467 14505 14442 14433 14503 14516 14460 14370 14328 14343 14257 14185 14158 14108 14125 14112 14135 14109 14049 14029 13943 13862 13804 13760 13663 13610 13636 13641 13653 13613 13647 13636 13612 13638 13636 13633 13650 13616 13707 13752 13809 13876 13849 13835 13799 13785 13712 13680 13731 13726 13628 13482 13411 13369 13332 13276 13300 13275 13193 13125 13071 12987 12925 12863 12711 12602 12538 12452 12353 12217 12081 12005 11900 11807 11775 11756 11725 11636 11579 11583 11543 11443 11326 11203 11119 11060 10962 10811 10703 10640 10610 10589 10622 10640 10570 10512 10414 10339 10354 10333 10260 10196 10210 10169 10180 10174 10058 9919 9851 9754 9672 9584 9507 9491 9431 9423 9305 9250 9231 9215 9231 9196 9187 9221 9196 9178 9254 9286 9330 9326 9348 9340 9338 9373 9467 9586 9625 9697 9653 9634 9612 9592 9541 9534 9534 9548 9573 9638 9600 9547 9572 9544 9560 9545 9542 9560 9656 9702 9682 9719 9811 9876 9919 10000 10010 9985 10050 10151 10175 10244 10168 10116 10101 10086 10075 10045 10032 10015 9924 9895 9853 9860 9807 9793 9778 9704 9782 9805 9836 9926 9944 9969 10050 10084 10174 10260 10357 10394 10433 10420 10442 10512 10533 10597 10730 10835 10901 11021 11045 11128 11132 11125 11154 11164 11203 11249 11271 11315 11297 11276 11288 11322 11323 11345 11360 11352 11374 11378 11380 11390 11370 11393 11454 11535 11508 11461 11419 11348 11354 11418 11426 11458 11423 11384 11285 11225 11198 11169 11091 10999 11016 11080 11115 11197 11248 11259 11318 11399 11395 11456 11446 11500 11516 11539 11652 11711 11785 11912 11970 12089 12157 12206 12260 12343 12378 12463 12502 12554 12528 12561 12613 12666 12666 12689 12677 12639 12651 12674 12637 12540 12571 12597 12603 12573 12507 12500 12400 12281 12303 12378 12366 12334 12360 12414 12476 12491 12452 12451 12421 12416 12454 12444 12427 12378 12404 12479 12556 12690 12768 12839 12917 12997 13008 13043 13051 13098 13149 13246 13346 13442 13468 13547 13631 13736 13750 13770 13789 13831 13858 13842 13907 13964 14053 14093 14187 14332 14298 14289 14229 14199 14185 14158 14165 14121 14119 14081 14139 14143 14227 14274 14254 14243 14251 14318 14365 14428 14434 14421 14457 14458 14412 14412 14378 14367 14362 14356 14410 14459 14440 14451 14490 14534 14651 14722 14768 14774 14800 14858 14884 14910 14915 14907 14980 15059 15021 14946 14888 14816 14854 14864 14850 14813 14795 14795 14776 14753 14698 14672 14694 14678 14710 14701 14703 14732 14765 14762 14796 14780 14806 14807 14780 14788 14787 14828 14864 14878 14889 14904 14929 14929 14905 14906 14914 14974 15034 15032 14954 14935 14878 14808 14720 14667
17150 17152 17198 17090 17030 17011 16919 16830 16808 16771 16687 16613 16579 16594 16565 16445 16350 16244 16151 16060 15942 15882 15816 15754 15715 15658 15597 15561 15596 15516 15461 15479 15532 15512 15563 15535 15494 15443 15426 15387 15295 15251 15145 15131 15064 15047 15025 15032 15005 15015 14955 14892 14842 14736 14580 14521 14461 14381 14374 14416 14463 14488 14512 14482 14483 14501 14592 14561 14533 14578 14579 14536 14551 14534 14517 14455 14360 14298 14258 14196 14182 14196 14219 14154 14130 14082 14024 13960 13882 13833 13757 13751 13729 13711 13727 13754 13751 13728 13741 13778 13766 13801 13803 13846 13839 13849 13883 13872 13873 13865 13851 13790 13757 13809 13813 13671 13578 13489 13473 13434 13395 13352 13354 13282 13203 13121 13049 13029 12977 12823 12717 12635 12524 12430 12270 12141 12092 12005 11909 11866 11894 11792 11752 11663 11607 11546 11472 11407 11276 11149 11092 11008 10865 10802 10719 10694 10653 10643 10675 10608 10573 10517 10424 10370 10347 10295 10250 10213 10218 10222 10221 10108 9998 9910 9803 9749 9690 9584 9563 9524 9457 9334 9299 9284 9278 9277 9271 9249 9281 9250 9284 9321 9368 9398 9378 9382 9441 9458 9470 9549 9624 9678 9710 9675 9679 9640 9628 9601 9589 9635 9671 9709 9755 9708 9696 9737 9725 9734 9695 9643 9633 9688 9738 9772 9776 9835 9954 9971 10065 10056 10053 10159 10233 10229 10306 10251 10241 10248 10215 10213 10177 10168 10096 10057 10003 9951 9923 9839 9820 9775 9745 9821 9843 9928 10027 10022 10057 10076 10112 10170 10242 10326 10387 10405 10384 10455 10515 10599 10638 10730 10841 10924 11033 11079 11158 11133 11142 11163 11204 11271 11266 11307 11308 11308 11293 11263 11268 11300 11335 11377 11388 11379 11424 11446 11482 11436 11440 11541 11604 11556 11543 11505 11454 11466 11463 11464 11465 11444 11393 11318 11294 11216 11167 11127 11053 11067 11145 11152 11245 11281 11264 11316 11347 11376 11455 11431 11503 11579 11596 11681 11756 11845 11918 12042 12114 12167 12227 12288 12315 12383 12436 12506 12585 12529 12560 12602 12655 12638 12592 12622 12593 12591 12625 12604 12575 12617 12640 12625 12572 12500 12504 12426 12342 12317 12370 12370 12407 12385 12366 12439 12434 12381 12399 12403 12342 12343 12331 12289 12281 12365 12439 12532 12656 12759 12833 12928 13042 13064 13077 13116 13128 13174 13182 13309 13388 13460 13571 13616 13707 13710 13732 13801 13814 13826 13801 13885 13940 14000 14056 14140 14244 14186 14199 14145 14132 14144 14072 14088 14063 14076 14048 14042 14094 14145 14221 14211 14235 14231 14239 14246 14315 14307 14323 14367 14339 14315 14326 14316 14292 14306 14335 14412 14407 14410 14417 14442 14505 14622 14677 14727 14772 14778 14849 14891 14882 14891 14899 14947 15011 14981 14918 14848 14801 14851 14828 14837 14843 14835 14798 14780 14744 14696 14667 14681 14613 14615 14664 14708 14729 14727 14740 14765 14752 14774 14718 14761 14750 14787 14762 14809 14783 14806 14818 14861 14866 14871 14862 14871 14926 14953 14940 14932 14880 14828 14826 14736 14661
17197 17253 17285 17221 17170 17124 17058 16978 16870 16819 16801 16747 16681 16686 16670 16607 16482 16431 16329 16215 16089 16010 15926 15890 15818 15808 15767 15751 15728 15635 15582 15644 15674 15668 15655 15622 15548 15493 15487 15461 15395 15317 15232 15187 15139 15123 15130 15117 15139 15109 15077 14994 14898 14769 14648 14549 14477 14422 14407 14428 14492 14509 14469 14465 14504 14589 14632 14632 14631 14630 14665 14659 14697 14703 14668 14587 14500 14466 14372 14311 14313 14325 14316 14245 14181 14147 14137 14087 14029 13945 13847 13814 13815 13805 13856 13851 13834 13852 13810 13853 13936 13941 13945 13945 13946 13950 13920 13902 13935 13974 13979 13905 13876 13849 13880 13745 13660 13588 13519 13468 13475 13423 13404 13378 13316 13261 13171 13103 13051 12957 12828 12730 12616 12480 12297 12202 12169 12116 12003 12001 11979 11892 11829 11735 11628 11551 11494 11432 11339 11208 11116 11067 10963 10860 10778 10753 10711 10707 10757 10707 10679 10555 10488 10456 10404 10366 10338 10293 10272 10293 10260 10156 10110 9969 9886 9838 9740 9692 9648 9542 9447 9386 9319 9342 9355 9362 9308 9330 9323 9370 9425 9418 9437 9401 9390 9453 9489 9509 9568 9646 9671 9735 9750 9686 9673 9641 9674 9665 9659 9674 9750 9811 9821 9805 9840 9880 9873 9832 9791 9742 9738 9757 9794 9834 9886 9907 9973 10049 10109 10109 10164 10228 10272 10328 10380 10382 10337 10322 10349 10338 10304 10278 10237 10157 10110 10045 9932 9859 9828 9778 9777 9870 9944 10007 10077 10132 10184 10196 10194 10254 10277 10332 10374 10368 10391 10479 10517 10650 10722 10773 10880 10957 11005 11081 11183 11186 11151 11207 11209 11291 11315 11333 11338 11337 11315 11301 11276 11329 11342 11412 11424 11453 11476 11519 11515 11492 11500 11558 11612 11606 11608 11567 11522 11504 11518 11506 11474 11475 11459 11365 11329 11261 11170 11088 11067 11144 11204 11219 11295 11306 11312 11306 11352 11358 11410 11444 11525 11615 11676 11773 11829 11857 11949 12044 12181 12217 12256 12266 12280 12359 12438 12494 12556 12562 12608 12638 12619 12585 12533 12541 12535 12533 12569 12541 12566 12593 12625 12610 12607 12544 12542 12457 12376 12376 12357 12377 12426 12380 12363 12366 12328 12305 12342 12352 12326 12292 12270 12190 12173 12272 12411 12496 12561 12683 12870 12967 13105 13110 13140 13115 13104 13133 13161 13255 13335 13422 13560 13654 13709 13696 13733 13787 13788 13818 13786 13821 13861 13886 13967 14074 14163 14104 14074 14083 14110 14089 14011 14001 14017 14017 14037 14014 14014 14104 14157 14193 14231 14184 14167 14161 14217 14262 14285 14252 14271 14265 14247 14234 14241 14287 14322 14375 14386 14402 14401 14453 14515 14571 14645 14705 14762 14766 14820 14832 14811 14826 14851 14955 15011 14963 14870 14854 14851 14844 14825 14793 14814 14794 14794 14790 14749 14709 14692 14648 14556 14553 14585 14691 14743 14736 14686 14714 14721 14699 14687 14691 14693 14727 14744 14767 14747 14729 14735 14820 14845 14851 14833 14887 14879 14876 14892 14865 14875 14831 14800 14730 14614
17283 17336 17313 17273 17212 17205 17115 17025 16981 16892 16862 16856 16810 16770 16737 16655 16579 16514 16493 16383 16260 16157 16069 15997 15903 15907 15879 15820 15808 15761 15707 15698 15729 15707 15729 15730 15691 15597 15574 15531 15468 15389 15263 15262 15207 15167 15191 15211 15192 15147 15162 15035 14980 14879 14740 14690 14602 14535 14472 14468 14490 14490 14518 14514 14529 14632 14691 14684 14717 14719 14797 14808 14796 14782 14766 14698 14668 14587 14521 14477 14408 14438 14435 14372 14345 14337 14298 14269 14164 14073 13991 13974 13975 14011 14053 14050 14053 13968 13949 14023 14067 14060 14063 14058 14061 14024 14046 14030 13988 14019 14072 13988 13918 13933 13924 13891 13794 13706 13631 13628 13606 13567 13548 13488 13456 13352 13270 13193 13078 12979 12881 12797 12716 12599 12433 12305 12204 12174 12081 12055 12049 11980 11981 11867 11756 11647 11618 11524 11440 11288 11168 11136 11021 10935 10842 10843 10808 10823 10799 10730 10689 10651 10565 10532 10486 10447 10404 10374 10345 10336 10285 10160 10091 9990 9887 9857 9769 9708 9631 9536 9434 9369 9358 9402 9366 9383 9367 9384 9398 9389 9439 9436 9454 9412 9423 9466 9510 9561 9609 9702 9733 9820 9835 9755 9728 9735 9748 9759 9743 9798 9791 9837 9866 9878 9901 9964 9971 9889 9894 9856 9864 9844 9913 9956 10012 9977 10008 10077 10142 10203 10263 10286 10360 10380 10423 10477 10452 10407 10421 10407 10416 10360 10310 10276 10200 10129 10025 9988 9943 9895 9864 9925 10000 10054 10161 10221 10276 10291 10280 10337 10330 10390 10403 10367 10389 10448 10480 10630 10758 10813 10866 10942 11054 11101 11211 11224 11214 11227 11230 11274 11334 11347 11396 11366 11341 11313 11317 11342 11339 11401 11442 11408 11436 11480 11554 11524 11571 11587 11619 11596 11598 11581 11550 11518 11542 11520 11473 11467 11449 11406 11335 11269 11228 11153 11100 11166 11213 11287 11332 11357 11380 11409 11441 11455 11489 11492 11527 11604 11685 11755 11848 11908 11974 12010 12124 12229 12273 12280 12275 12373 12405 12444 12500 12532 12607 12635 12615 12586 12583 12592 12557 12549 12589 12640 12617 12640 12610 12584 12594 12562 12527 12448 12367 12424 12395 12385 12433 12360 12366 12354 12333 12323 12369 12318 12332 12252 12202 12152 12120 12223 12379 12416 12526 12649 12845 12904 13024 13083 13150 13138 13148 13156 13223 13311 13371 13445 13600 13672 13715 13718 13790 13844 13839 13836 13835 13826 13833 13930 13993 14050 14151 14138 14064 14097 14102 14039 14047 14011 14005 14012 13986 14006 14035 14104 14204 14201 14228 14211 14220 14203 14232 14286 14304 14303 14279 14256 14238 14192 14179 14198 14241 14258 14308 14396 14440 14474 14505 14581 14668 14760 14803 14835 14828 14832 14864 14839 14880 14921 14992 14900 14844 14803 14781 14792 14738 14749 14795 14766 14741 14704 14657 14651 14619 14542 14504 14524 14564 14624 14684 14689 14703 14674 14646 14649 14623 14626 14632 14609 14631 14686 14670 14703 14680 14711 14762 14749 14795 14766 14775 14765 14765 14754 14803 14758 14696 14642 14545
17423 17417 17404 17321 17297 17255 17230 17130 17036 16996 16935 16941 16905 16873 16869 16776 16728 16674 16673 16570 16482 16346 16232 16146 16032 16025 15989 15933 15897 15827 15794 15795 15805 15802 15776 15779 15776 15702 15614 15548 15540 15435 15345 15326 15257 15233 15270 15232 15195 15207 15189 15067 15006 14915 14860 14794 14685 14657 14585 14523 14519 14550 14571 14588 14592 14672 14743 14758 14798 14817 14868 14885 14917 14924 14921 14891 14819 14784 14691 14653 14564 14588 14565 14530 14484 14436 14431 14411 14336 14257 14130 14094 14074 14099 14188 14180 14220 14146 14125 14142 14200 14156 14135 14161 14183 14167 14116 14114 14085 14129 14152 14105 14019 14053 14029 13986 13947 13816 13710 13721 13745 13699 13674 13601 13563 13447 13308 13219 13158 13067 12926 12837 12769 12680 12536 12396 12281 12195 12174 12191 12149 12105 12084 11945 11854 11773 11713 11616 11564 11418 11275 11211 11112 11031 10912 10894 10847 10858 10849 10767 10709 10698 10630 10594 10550 10564 10533 10475 10427 10390 10368 10237 10119 10048 9931 9863 9793 9685 9633 9569 9473 9396 9377 9420 9413 9360 9366 9400 9444 9430 9451 9405 9410 9396 9415 9465 9510 9598 9678 9790 9849 9907 9903 9842 9827 9853 9819 9858 9881 9901 9866 9942 9969 9970 10022 10009 10037 9978 9971 9936 9956 9953 10001 10078 10098 10099 10098 10171 10191 10286 10355 10388 10438 10476 10466 10530 10532 10537 10481 10484 10480 10447 10396 10326 10234 10183 10155 10120 10057 9988 9892 10012 10097 10167 10207 10237 10310 10294 10335 10370 10365 10439 10463 10410 10397 10421 10478 10642 10748 10820 10877 10998 11077 11178 11227 11271 11285 11269 11261 11329 11357 11403 11445 11451 11397 11414 11374 11372 11359 11400 11413 11409 11447 11488 11562 11562 11620 11613 11656 11624 11618 11572 11567 11508 11510 11451 11422 11403 11413 11354 11282 11270 11251 11166 11144 11179 11198 11278 11388 11454 11478 11508 11479 11493 11529 11554 11531 11598 11694 11760 11881 11951 11970 12027 12112 12192 12233 12243 12287 12379 12421 12413 12437 12494 12549 12580 12589 12595 12635 12588 12600 12647 12634 12692 12690 12651 12646 12618 12588 12550 12542 12498 12421 12447 12446 12409 12435 12370 12322 12344 12339 12353 12338 12300 12314 12236 12181 12100 12063 12191 12312 12381 12515 12635 12809 12906 12981 13026 13116 13127 13145 13158 13234 13281 13389 13467 13605 13634 13702 13786 13821 13885 13891 13884 13846 13843 13852 13903 13982 14051 14164 14135 14090 14049 14054 14031 14045 13984 13961 13969 13969 14032 14044 14121 14206 14245 14225 14263 14289 14255 14272 14248 14289 14271 14258 14203 14200 14163 14178 14198 14182 14215 14257 14369 14427 14420 14463 14533 14663 14756 14831 14824 14877 14884 14920 14889 14921 14966 14950 14930 14855 14763 14734 14743 14710 14743 14751 14711 14693 14676 14614 14573 14502 14477 14424 14450 14530 14595 14604 14621 14664 14635 14635 14603 14550 14547 14512 14546 14533 14559 14557 14617 14642 14650 14652 14657 14716 14698 14707 14718 14696 14695 14705 14690 14640 14593 14537
17467 17479 17459 17434 17404 17398 17337 17254 17206 17109 17058 17011 17006 16965 16951 16894 16831 16840 16799 16677 16609 16500 16386 16316 16185 16119 16047 15991 16002 15925 15909 15947 15980 15924 15901 15894 15868 15795 15742 15622 15555 15487 15416 15353 15295 15308 15279 15252 15253 15254 15259 15203 15129 15003 14962 14877 14775 14687 14631 14581 14585 14642 14645 14665 14706 14765 14781 14831 14891 14865 14888 14901 14967 14988 15016 15014 14944 14939 14925 14829 14783 14706 14689 14682 14636 14583 14500 14477 14425 14372 14284 14280 14222 14274 14334 14363 14379 14346 14340 14351 14357 14285 14279 14281 14269 14217 14155 14162 14164 14185 14217 14155 14137 14141 14127 14116 14035 13926 13851 13870 13835 13828 13831 13697 13633 13530 13439 13315 13242 13081 12952 12882 12835 12718 12588 12457 12369 12307 12239 12242 12216 12175 12122 12015 11971 11861 11803 11706 11637 11492 11357 11270 11159 11115 11068 10977 10913 10862 10863 10805 10761 10718 10662 10646 10636 10614 10602 10560 10486 10431 10362 10257 10164 10052 9941 9882 9829 9721 9670 9578 9537 9498 9489 9455 9451 9389 9368 9392 9444 9439 9490 9494 9488 9475 9495 9552 9581 9673 9799 9874 9923 9986 10017 9947 9939 9920 9908 9903 9926 9910 9949 9965 10026 10033 10061 10079 10107 10049 10046 10006 10020 10009 10056 10147 10154 10141 10201 10273 10306 10391 10451 10497 10507 10493 10522 10536 10583 10582 10553 10519 10527 10530 10463 10406 10350 10288 10255 10184 10162 10100 9994 10093 10181 10208 10268 10297 10384 10400 10398 10416 10387 10448 10433 10398 10438 10454 10502 10664 10767 10839 10928 11018 11076 11153 11222 11297 11320 11332 11348 11407 11408 11398 11404 11388 11390 11377 11410 11369 11369 11375 11411 11394 11453 11538 11586 11631 11673 11643 11682 11632 11623 11558 11543 11507 11495 11443 11431 11452 11439 11359 11335 11282 11285 11189 11151 11202 11226 11302 11440 11483 11514 11515 11481 11503 11545 11585 11570 11651 11707 11771 11848 11940 11961 12068 12137 12222 12231 12261 12289 12322 12405 12373 12387 12459 12495 12547 12611 12586 12632 12624 12644 12712 12705 12752 12714 12671 12663 12584 12555 12537 12488 12475 12409 12419 12462 12458 12421 12378 12343 12318 12321 12333 12258 12265 12251 12175 12115 12042 12008 12157 12250 12383 12463 12593 12739 12876 12970 12998 13065 13082 13090 13117 13220 13269 13378 13478 13556 13616 13702 13785 13796 13848 13942 13890 13895 13901 13861 13938 13952 14064 14126 14078 14081 14011 14042 14010 14004 13949 13953 13972 13961 14008 14022 14116 14153 14201 14215 14264 14239 14263 14257 14228 14210 14221 14224 14198 14135 14140 14117 14125 14173 14195 14198 14318 14406 14447 14497 14578 14673 14727 14823 14798 14828 14874 14905 14947 14976 14960 14970 14934 14901 14817 14739 14722 14721 14749 14735 14686 14667 14580 14504 14422 14371 14363 14324 14347 14381 14486 14541 14528 14608 14590 14590 14546 14518 14492 14474 14445 14435 14424 14453 14518 14525 14560 14587 14575 14636 14607 14621 14652 14626 14589 14622 14609 14602 14579 14521
17576 17576 17566 17550 17548 17521 17444 17396 17363 17258 17177 17111 17066 17035 17011 16955 16962 16934 16891 16818 16691 16661 16576 16466 16341 16267 16146 16094 16068 16045 16069 16098 16099 16026 16015 15967 15927 15883 15844 15744 15632 15596 15507 15453 15382 15332 15308 15357 15365 15372 15345 15252 15198 15124 15028 14969 14856 14783 14706 14710 14661 14674 14743 14734 14770 14798 14860 14891 14951 14960 14945 14971 15001 15083 15120 15089 15065 15071 15108 15016 14940 14894 14854 14800 14769 14665 14624 14589 14528 14455 14393 14413 14401 14457 14522 14525 14501 14480 14493 14453 14455 14460 14447 14376 14343 14254 14230 14263 14284 14274 14220 14243 14236 14264 14270 14226 14146 14073 13982 13949 13909 13937 13947 13820 13706 13644 13566 13436 13329 13192 13025 12989 12905 12804 12679 12548 12456 12414 12355 12341 12326 12249 12224 12126 12035 11970 11855 11754 11680 11549 11400 11332 11219 11194 11164 11051 10993 10925 10844 10836 10780 10762 10694 10748 10740 10674 10663 10653 10582 10496 10402 10292 10216 10100 9960 9888 9812 9768 9735 9657 9584 9578 9548 9507 9466 9419 9398 9432 9455 9494 9590 9591 9532 9514 9555 9592 9687 9798 9880 9936 9940 10050 10100 10040 10007 10008 10010 9966 9978 9976 9997 10022 10083 10073 10084 10128 10156 10187 10172 10151 10120 10136 10134 10177 10169 10223 10316 10378 10411 10505 10586 10584 10622 10589 10605 10615 10620 10623 10565 10553 10603 10592 10566 10532 10447 10404 10394 10313 10244 10203 10103 10179 10287 10342 10371 10415 10448 10456 10440 10452 10466 10476 10430 10421 10458 10481 10561 10661 10778 10860 10929 11004 11107 11202 11280 11280 11326 11355 11425 11445 11432 11455 11427 11428 11439 11417 11410 11450 11441 11433 11416 11416 11474 11525 11616 11675 11675 11652 11678 11599 11567 11535 11491 11492 11475 11475 11458 11432 11456 11384 11336 11301 11277 11237 11200 11248 11276 11370 11439 11471 11528 11518 11503 11578 11623 11610 11618 11670 11743 11800 11848 11885 11986 12074 12104 12207 12255 12260 12328 12341 12329 12386 12391 12445 12450 12504 12593 12614 12680 12670 12654 12737 12762 12780 12751 12669 12621 12582 12548 12511 12445 12408 12373 12417 12474 12438 12453 12426 12339 12325 12321 12286 12219 12186 12180 12140 12109 12044 12017 12102 12185 12325 12433 12542 12670 12820 12984 12983 13045 13049 13083 13113 13202 13259 13373 13445 13549 13640 13671 13766 13836 13869 13943 13960 13943 13907 13889 13917 13970 14045 14073 14049 14014 13990 13976 13943 13904 13935 13921 13944 14001 14013 14004 14090 14153 14218 14232 14238 14251 14249 14233 14236 14183 14173 14151 14149 14102 14076 14071 14091 14144 14150 14180 14282 14358 14465 14534 14570 14643 14721 14823 14792 14807 14847 14919 14960 15003 15011 14974 14957 14907 14849 14733 14737 14694 14707 14693 14618 14597 14475 14397 14356 14268 14225 14172 14253 14285 14362 14450 14453 14514 14557 14558 14484 14441 14391 14377 14365 14341 14347 14394 14395 14441 14485 14544 14535 14543 14547 14547 14567 14543 14528 14490 14542 14551 14552 14521
17623 17605 17620 17627 17638 17562 17524 17486 17428 17356 17264 17190 17078 17099 17070 17048 17005 17002 16977 16893 16742 16718 16682 16561 16375 16317 16225 16168 16171 16138 16127 16136 16111 16068 16084 16051 16021 15956 15905 15804 15744 15644 15569 15510 15475 15397 15390 15406 15369 15414 15385 15334 15283 15228 15156 15024 14901 14858 14800 14781 14793 14812 14857 14823 14844 14889 14945 14948 15029 15000 14954 14982 15039 15117 15199 15148 15178 15158 15156 15122 15066 15012 14969 14942 14888 14832 14786 14708 14689 14572 14541 14503 14468 14516 14615 14565 14593 14588 14582 14544 14549 14535 14497 14433 14392 14345 14315 14352 14373 14322 14247 14271 14268 14318 14308 14279 14222 14198 14087 14082 14126 14109 14149 14004 13853 13733 13676 13522 13433 13308 13112 13097 12999 12902 12823 12726 12571 12477 12423 12370 12314 12287 12232 12159 12067 11996 11859 11759 11687 11554 11448 11389 11324 11259 11239 11158 11051 10967 10892 10886 10834 10776 10690 10744 10748 10729 10700 10617 10575 10483 10451 10332 10278 10154 10018 9930 9881 9869 9810 9746 9680 9686 9662 9643 9554 9509 9455 9541 9565 9571 9647 9631 9589 9646 9658 9714 9820 9954 10015 9998 10019 10142 10217 10172 10171 10173 10156 10150 10151 10102 10106 10183 10234 10199 10227 10271 10287 10306 10378 10321 10325 10324 10282 10347 10333 10370 10452 10495 10514 10583 10661 10643 10728 10745 10766 10739 10751 10759 10671 10658 10689 10689 10675 10558 10499 10499 10488 10431 10358 10310 10246 10307 10320 10408 10413 10413 10458 10515 10550 10549 10566 10579 10546 10506 10532 10573 10666 10723 10799 10883 10985 11083 11161 11255 11269 11299 11311 11378 11427 11416 11428 11476 11466 11486 11467 11522 11542 11527 11559 11509 11479 11524 11573 11591 11682 11669 11727 11733 11754 11688 11629 11568 11548 11552 11518 11514 11547 11498 11461 11403 11381 11341 11331 11248 11241 11314 11306 11383 11487 11522 11562 11532 11538 11556 11626 11668 11738 11780 11816 11860 11902 11942 12035 12071 12094 12166 12272 12298 12316 12359 12314 12405 12435 12470 12507 12524 12620 12656 12690 12680 12729 12777 12773 12767 12755 12642 12576 12556 12527 12503 12457 12416 12364 12390 12459 12458 12451 12377 12353 12289 12270 12291 12285 12241 12231 12149 12048 12023 11995 12055 12099 12219 12385 12522 12659 12805 12919 12959 13002 13047 13127 13141 13231 13288 13345 13445 13563 13646 13663 13774 13861 13871 13880 13897 13890 13890 13867 13945 13963 13974 14034 14052 14013 14013 14002 13982 13930 13900 13910 13939 13953 13972 13975 14031 14120 14135 14168 14175 14192 14166 14178 14133 14088 14106 14142 14132 14094 14079 14101 14121 14205 14177 14230 14304 14377 14459 14463 14534 14558 14607 14698 14733 14773 14825 14880 14887 14915 14950 14982 14927 14848 14785 14680 14659 14657 14648 14613 14588 14512 14386 14300 14256 14196 14192 14165 14178 14194 14289 14342 14407 14478 14488 14539 14442 14392 14360 14357 14361 14303 14362 14367 14357 14419 14405 14465 14476 14450 14439 14453 14456 14423 14440 14395 14444 14461 14473 14440
17675 17661 17658 17651 17687 17654 17643 17539 17444 17374 17349 17263 17155 17143 17121 17110 17103 17132 17103 16975 16837 16783 16757 16608 16465 16414 16312 16272 16272 16247 16243 16211 16164 16139 16100 16104 16070 16049 15988 15902 15806 15764 15680 15648 15598 15498 15463 15439 15393 15438 15485 15410 15370 15313 15227 15112 14952 14880 14848 14855 14875 14933 14947 14959 14961 14972 15040 15024 15050 15011 15014 15074 15107 15169 15258 15244 15253 15229 15187 15204 15167 15124 15065 15063 15021 14966 14915 14885 14832 14706 14631 14612 14589 14605 14669 14641 14641 14608 14626 14599 14603 14580 14609 14537 14460 14469 14448 14453 14418 14337 14285 14351 14360 14387 14393 14364 14315 14310 14248 14267 14285 14306 14298 14152 13975 13857 13759 13652 13510 13404 13260 13199 13136 13034 12925 12841 12707 12552 12460 12363 12306 12244 12205 12157 12108 12032 11901 11789 11732 11593 11487 11463 11404 11326 11303 11219 11118 11080 10999 10943 10870 10818 10750 10771 10739 10734 10676 10616 10617 10539 10511 10402 10295 10177 10097 10009 9953 9894 9853 9794 9765 9783 9760 9740 9668 9608 9572 9604 9667 9687 9674 9692 9709 9702 9755 9839 9957 10074 10141 10131 10163 10221 10292 10273 10283 10322 10366 10372 10353 10277 10265 10315 10347 10344 10378 10441 10459 10490 10539 10515 10517 10479 10395 10482 10522 10545 10570 10577 10613 10684 10708 10729 10815 10828 10904 10911 10870 10869 10831 10808 10776 10773 10752 10644 10583 10632 10619 10593 10535 10475 10360 10375 10380 10447 10490 10494 10532 10613 10671 10709 10709 10650 10643 10596 10612 10646 10715 10816 10871 11017 11103 11202 11249 11302 11309 11297 11333 11368 11403 11437 11438 11480 11467 11469 11527 11602 11628 11619 11618 11604 11604 11628 11616 11652 11694 11708 11742 11795 11812 11755 11674 11650 11614 11607 11602 11628 11594 11524 11470 11475 11463 11437 11400 11313 11266 11344 11368 11451 11552 11554 11584 11536 11528 11581 11640 11744 11824 11864 11900 11899 11946 11973 12030 12082 12098 12187 12280 12316 12366 12352 12332 12387 12492 12484 12527 12578 12652 12715 12726 12739 12747 12776 12764 12732 12698 12617 12559 12557 12496 12528 12518 12453 12391 12412 12394 12372 12413 12388 12322 12306 12284 12318 12305 12252 12243 12119 12043 12017 11969 12044 12066 12164 12318 12491 12628 12755 12884 12903 12985 13061 13112 13180 13227 13277 13339 13428 13522 13604 13676 13744 13824 13833 13875 13842 13863 13903 13883 13938 13968 13965 14007 14021 13992 13979 13989 13931 13925 13859 13854 13860 13884 13929 13941 13980 14046 14061 14091 14086 14102 14125 14087 14054 14017 14048 14080 14105 14115 14108 14074 14168 14206 14223 14288 14291 14358 14419 14424 14464 14522 14544 14628 14652 14735 14761 14800 14850 14890 14939 14928 14816 14765 14732 14664 14655 14623 14592 14530 14512 14473 14374 14256 14186 14166 14155 14146 14118 14135 14179 14221 14283 14408 14474 14496 14421 14402 14320 14285 14304 14313 14314 14332 14341 14359 14326 14356 14379 14406 14422 14381 14330 14340 14314 14332 14315 14330 14354 14394
17672 17687 17628 17676 17701 17676 17669 17567 17463 17425 17426 17304 17251 17189 17142 17126 17159 17183 17183 17021 16915 16862 16768 16685 16550 16471 16372 16330 16293 16310 16245 16252 16217 16182 16185 16197 16176 16113 16029 15960 15856 15809 15699 15662 15593 15540 15464 15438 15424 15490 15533 15415 15380 15299 15294 15162 15064 14989 14897 14910 14941 14977 15017 15056 15050 15057 15099 15135 15144 15104 15116 15163 15203 15307 15331 15334 15283 15251 15261 15233 15255 15241 15195 15126 15089 15059 15033 15017 14969 14835 14749 14699 14657 14662 14745 14728 14685 14665 14707 14728 14747 14688 14693 14661 14561 14507 14505 14464 14441 14417 14383 14400 14455 14497 14489 14468 14398 14401 14341 14375 14445 14469 14470 14274 14123 14016 13859 13770 13640 13510 13364 13337 13292 13168 13045 12976 12854 12719 12569 12460 12397 12318 12280 12169 12088 12021 11946 11872 11790 11643 11550 11524 11486 11400 11408 11336 11236 11159 11021 10965 10950 10891 10855 10803 10765 10713 10725 10704 10646 10616 10567 10457 10370 10304 10206 10150 10079 9966 9882 9880 9841 9850 9849 9814 9739 9714 9644 9698 9735 9734 9769 9778 9844 9850 9896 9953 10031 10119 10201 10216 10260 10347 10414 10415 10449 10487 10529 10512 10491 10434 10450 10474 10524 10504 10546 10611 10590 10617 10693 10662 10657 10672 10614 10628 10695 10670 10738 10765 10749 10777 10830 10858 10896 10926 11005 10989 10993 10975 10895 10886 10823 10818 10799 10722 10684 10688 10687 10669 10619 10510 10407 10465 10465 10539 10613 10644 10656 10686 10741 10784 10833 10779 10777 10758 10713 10790 10806 10884 10969 11060 11152 11238 11292 11349 11328 11349 11403 11422 11412 11447 11473 11515 11484 11492 11582 11634 11647 11630 11650 11628 11659 11649 11689 11692 11681 11752 11771 11805 11870 11823 11778 11691 11645 11606 11619 11664 11653 11617 11570 11523 11475 11474 11405 11369 11294 11357 11401 11460 11551 11520 11567 11591 11603 11671 11692 11819 11926 11920 11967 11998 12064 12084 12080 12126 12147 12216 12257 12292 12379 12382 12333 12425 12489 12487 12531 12631 12722 12766 12769 12749 12710 12742 12692 12675 12638 12627 12576 12549 12523 12478 12487 12420 12356 12378 12335 12308 12353 12336 12309 12278 12300 12269 12258 12257 12210 12098 12033 11991 11943 11977 12022 12153 12293 12415 12525 12644 12791 12858 12946 13006 13045 13154 13190 13259 13282 13407 13464 13558 13641 13710 13763 13785 13852 13905 13916 13882 13848 13931 13989 14028 14050 14008 13968 13965 14001 13959 13905 13847 13862 13885 13931 13878 13891 13932 13939 13961 13978 13995 13988 14028 14025 13975 13948 13996 14021 14055 14061 14074 14057 14149 14185 14243 14298 14334 14328 14341 14385 14437 14472 14482 14523 14593 14631 14684 14715 14740 14827 14859 14903 14784 14722 14657 14584 14588 14537 14485 14479 14417 14421 14318 14186 14152 14109 14144 14092 14107 14125 14127 14141 14254 14371 14435 14433 14360 14334 14321 14309 14308 14264 14260 14272 14273 14286 14262 14302 14337 14330 14286 14266 14240 14275 14259 14218 14225 14229 14273 14340
17688 17696 17645 17688 17683 17730 17718 17608 17547 17490 17455 17366 17331 17242 17192 17219 17232 17209 17222 17104 17033 16906 16818 16749 16647 16591 16484 16409 16341 16349 16310 16262 16231 16221 16254 16224 16223 16157 16099 15980 15909 15813 15770 15738 15650 15598 15492 15465 15473 15501 15531 15449 15368 15313 15311 15247 15127 15058 14971 14966 15005 15054 15084 15137 15143 15152 15177 15188 15193 15209 15168 15247 15343 15425 15449 15376 15360 15325 15295 15339 15344 15312 15335 15257 15218 15196 15203 15162 15059 14925 14812 14795 14753 14751 14760 14778 14792 14787 14819 14855 14858 14848 14831 14771 14659 14621 14546 14488 14475 14443 14464 14488 14551 14566 14565 14560 14528 14492 14446 14485 14561 14552 14585 14434 14258 14118 13964 13866 13777 13652 13499 13434 13390 13243 13156 13055 12948 12803 12616 12505 12448 12358 12301 12223 12086 12033 11982 11930 11827 11722 11598 11543 11513 11472 11470 11382 11319 11208 11058 11046 11048 10972 10935 10842 10809 10759 10736 10717 10700 10663 10591 10511 10478 10400 10328 10264 10160 10043 9968 10001 9976 9991 9954 9922 9862 9772 9691 9760 9790 9776 9803 9904 9979 9990 10048 10085 10109 10218 10286 10355 10377 10452 10583 10562 10595 10639 10708 10626 10598 10576 10585 10660 10675 10704 10703 10762 10760 10767 10831 10856 10819 10817 10775 10815 10840 10825 10844 10885 10886 10887 10893 10952 11041 11057 11080 11088 11075 11031 11020 10959 10915 10897 10861 10816 10773 10746 10744 10718 10686 10595 10503 10542 10592 10648 10680 10696 10758 10816 10826 10851 10902 10931 10901 10878 10865 10919 10922 10967 11075 11157 11241 11305 11380 11383 11410 11451 11447 11428 11470 11451 11454 11503 11524 11556 11604 11663 11731 11709 11704 11676 11691 11714 11736 11703 11695 11766 11777 11851 11899 11834 11826 11745 11636 11630 11631 11696 11699 11670 11617 11526 11491 11462 11454 11424 11373 11423 11495 11524 11553 11536 11568 11593 11655 11719 11760 11892 11976 12016 12061 12136 12168 12191 12173 12159 12185 12231 12268 12288 12349 12343 12356 12395 12474 12480 12550 12658 12743 12748 12789 12739 12718 12684 12623 12603 12629 12577 12544 12533 12495 12497 12489 12410 12366 12343 12309 12263 12275 12262 12249 12290 12287 12234 12245 12192 12199 12116 12016 11943 11855 11942 12008 12092 12219 12325 12440 12542 12672 12808 12914 12954 13041 13147 13197 13227 13266 13350 13459 13558 13611 13687 13701 13780 13869 13910 13913 13901 13869 13903 13956 14027 14049 14007 13977 13953 13988 13899 13870 13867 13869 13866 13928 13874 13869 13862 13830 13890 13909 13928 13938 13915 13901 13900 13943 13902 13917 14004 14050 14084 14062 14105 14209 14266 14276 14310 14352 14351 14318 14327 14372 14407 14470 14501 14486 14553 14625 14660 14732 14822 14862 14750 14627 14574 14483 14500 14482 14442 14450 14365 14310 14276 14180 14120 14096 14103 14096 14091 14071 14092 14102 14213 14280 14356 14376 14352 14312 14272 14285 14274 14276 14197 14182 14237 14242 14261 14248 14267 14225 14176 14167 14195 14166 14133 14088 14107 14135 14204 14242
17675 17662 17675 17704 17683 17732 17739 17686 17601 17537 17500 17409 17344 17254 17207 17260 17290 17267 17287 17160 17112 16976 16901 16847 16740 16708 16589 16496 16443 16410 16399 16386 16340 16344 16344 16276 16252 16185 16121 16012 15925 15839 15776 15726 15707 15628 15569 15506 15511 15512 15531 15473 15381 15386 15365 15296 15226 15139 15082 15105 15098 15103 15151 15176 15179 15245 15246 15247 15296 15276 15260 15295 15375 15473 15489 15443 15404 15409 15368 15397 15430 15427 15388 15323 15291 15298 15244 15217 15129 15036 14969 14957 14918 14917 14912 14882 14852 14838 14864 14873 14834 14859 14847 14784 14733 14680 14609 14604 14640 14618 14544 14636 14674 14624 14638 14626 14597 14535 14508 14539 14592 14626 14697 14523 14380 14220 14105 13976 13864 13757 13631 13511 13456 13344 13236 13120 13066 12886 12767 12652 12551 12476 12385 12296 12170 12076 12046 11977 11915 11808 11677 11632 11587 11546 11480 11381 11347 11277 11142 11104 11071 11011 10955 10858 10847 10785 10741 10785 10759 10729 10677 10612 10591 10463 10411 10354 10247 10177 10078 10062 10034 10066 10036 9958 9841 9797 9723 9789 9804 9869 9921 9975 10000 10052 10099 10184 10217 10340 10412 10425 10490 10611 10676 10680 10768 10808 10888 10829 10790 10790 10771 10825 10851 10878 10878 10892 10959 10953 10941 10958 11025 10956 10939 10982 10967 10956 11024 11049 11041 11045 11010 11044 11104 11109 11137 11113 11126 11066 11062 11016 10902 10883 10874 10836 10767 10803 10784 10735 10738 10716 10646 10676 10700 10764 10770 10854 10881 10897 10890 10959 10976 11003 10977 10971 10970 11023 11015 11079 11142 11236 11332 11386 11412 11377 11421 11405 11455 11445 11479 11480 11570 11577 11620 11679 11724 11749 11752 11710 11698 11749 11738 11739 11786 11763 11773 11791 11808 11875 11949 11884 11807 11768 11672 11689 11667 11720 11729 11754 11698 11636 11586 11549 11509 11498 11482 11515 11544 11591 11636 11609 11602 11650 11690 11745 11824 11936 12108 12152 12165 12182 12200 12226 12203 12181 12238 12308 12353 12364 12381 12397 12445 12468 12531 12531 12572 12658 12735 12750 12717 12748 12723 12666 12657 12608 12601 12591 12624 12592 12596 12539 12498 12414 12394 12341 12321 12277 12285 12285 12220 12291 12280 12216 12206 12165 12191 12139 12027 11964 11840 11952 12065 12141 12207 12306 12419 12515 12668 12786 12874 12933 13038 13116 13161 13226 13253 13364 13430 13551 13561 13617 13684 13771 13843 13845 13903 13902 13892 13959 13975 14012 14057 14037 14027 14039 14050 13943 13906 13916 13939 13911 13978 13893 13884 13824 13836 13832 13872 13871 13865 13861 13894 13922 13926 13882 13903 13991 14040 14054 14064 14063 14155 14201 14263 14321 14333 14309 14345 14341 14344 14415 14472 14487 14445 14494 14546 14625 14681 14712 14798 14685 14574 14502 14403 14380 14406 14365 14324 14318 14244 14181 14128 14080 14052 14061 14056 14026 14027 14061 14065 14118 14186 14265 14339 14264 14243 14262 14215 14222 14213 14160 14176 14197 14208 14166 14162 14179 14165 14125 14068 14077 14090 14071 14027 14035 14068 14109 14107
17684 17707 17688 17727 17732 17757 17726 17696 17649 17585 17554 17463 17414 17315 17275 17322 17342 17342 17387 17258 17182 17085 16986 16943 16876 16799 16666 16603 16569 16533 16488 16483 16428 16438 16438 16401 16308 16217 16187 16052 15961 15916 15838 15780 15710 15684 15662 15578 15538 15560 15521 15491 15442 15401 15364 15309 15265 15255 15193 15244 15253 15237 15249 15249 15260 15335 15365 15388 15379 15348 15309 15393 15415 15494 15556 15509 15502 15526 15505 15471 15469 15474 15454 15394 15364 15363 15350 15280 15249 15174 15106 15052 15035 15022 15073 15041 14975 14943 14878 14856 14836 14858 14892 14829 14815 14761 14728 14730 14773 14734 14681 14738 14757 14720 14727 14679 14660 14634 14587 14623 14675 14764 14829 14682 14535 14401 14224 14098 14009 13891 13726 13616 13503 13442 13349 13253 13169 13006 12872 12762 12688 12599 12507 12389 12251 12161 12084 12032 11971 11866 11735 11638 11601 11560 11480 11420 11347 11289 11180 11157 11091 11031 10999 10916 10891 10802 10757 10820 10840 10793 10734 10699 10665 10572 10541 10442 10371 10265 10194 10152 10135 10094 10062 9948 9842 9777 9698 9780 9819 9888 9991 10039 10067 10119 10194 10246 10305 10430 10513 10556 10623 10714 10794 10845 10879 10939 11032 11032 11001 11006 10999 11015 10997 11055 11052 11077 11129 11108 11101 11118 11174 11121 11123 11124 11114 11131 11152 11145 11165 11124 11095 11123 11157 11158 11178 11129 11136 11136 11075 11017 10944 10936 10902 10832 10826 10825 10814 10779 10773 10771 10742 10809 10850 10863 10877 10952 10966 10976 10978 11051 11106 11093 11068 11019 11019 11082 11111 11179 11223 11269 11366 11411 11403 11408 11447 11418 11450 11481 11459 11523 11644 11674 11724 11777 11798 11779 11747 11716 11728 11771 11769 11800 11824 11859 11848 11870 11891 11912 11946 11863 11824 11779 11719 11772 11765 11744 11764 11795 11770 11731 11671 11645 11594 11586 11555 11587 11627 11639 11661 11683 11651 11656 11714 11801 11922 12045 12183 12226 12229 12237 12272 12267 12269 12248 12234 12334 12378 12375 12400 12462 12536 12574 12625 12668 12650 12681 12708 12679 12705 12706 12746 12722 12643 12668 12638 12631 12657 12676 12651 12563 12471 12415 12409 12405 12373 12364 12317 12291 12229 12269 12280 12247 12168 12177 12167 12105 11991 11956 11883 11958 12092 12129 12208 12329 12420 12519 12608 12746 12885 12956 13069 13146 13185 13226 13292 13362 13447 13534 13574 13661 13708 13757 13776 13799 13854 13855 13895 13999 14043 14032 14064 14095 14081 14081 14086 14020 13950 13935 13958 13962 13985 13930 13897 13843 13834 13813 13783 13814 13812 13851 13912 13919 13910 13881 13903 13922 13968 13997 14043 14051 14082 14177 14253 14289 14326 14331 14317 14294 14318 14399 14439 14425 14403 14419 14446 14522 14590 14650 14727 14593 14523 14397 14302 14323 14355 14305 14226 14218 14210 14179 14110 14077 14017 14011 13958 14001 13994 13989 14039 14056 14122 14191 14290 14244 14229 14244 14197 14188 14203 14171 14154 14122 14119 14101 14126 14096 14064 14021 14006 13997 13960 13949 13970 13995 13974 14010 14033
17675 17751 17790 17790 17797 17792 17770 17774 17717 17711 17671 17582 17522 17478 17381 17383 17424 17417 17424 17343 17269 17184 17113 17030 17006 16913 16802 16706 16703 16631 16545 16525 16523 16535 16527 16452 16389 16263 16146 16062 16010 15934 15922 15870 15790 15742 15733 15644 15560 15552 15535 15490 15408 15388 15357 15377 15335 15320 15313 15318 15335 15369 15345 15366 15393 15439 15456 15464 15497 15411 15394 15484 15494 15559 15568 15610 15604 15613 15631 15592 15619 15594 15553 15510 15474 15430 15428 15391 15347 15294 15236 15234 15192 15165 15224 15132 15060 15035 14944 14902 14918 14930 14932 14890 14891 14856 14858 14887 14902 14890 14835 14806 14827 14783 14788 14737 14777 14742 14669 14718 14754 14867 14929 14776 14663 14546 14397 14286 14193 14031 13898 13759 13607 13551 13424 13313 13214 13093 12977 12883 12753 12672 12615 12466 12384 12281 12217 12150 12031 11964 11803 11715 11661 11575 11515 11486 11459 11381 11273 11229 11167 11128 11100 11016 10974 10909 10849 10843 10863 10818 10828 10764 10774 10681 10631 10571 10458 10385 10292 10259 10192 10129 10133 9988 9859 9798 9724 9790 9829 9944 10077 10101 10219 10284 10321 10360 10414 10506 10574 10658 10761 10833 10902 10989 11036 11063 11143 11154 11166 11190 11176 11219 11217 11268 11267 11251 11288 11289 11267 11298 11392 11322 11335 11372 11373 11366 11322 11358 11348 11297 11254 11211 11217 11206 11213 11227 11158 11158 11106 11076 11001 10972 10909 10854 10858 10823 10846 10840 10836 10855 10810 10856 10949 10965 11031 11043 11022 11073 11090 11112 11163 11186 11185 11140 11104 11111 11166 11203 11278 11280 11351 11381 11350 11378 11430 11477 11501 11482 11502 11542 11665 11695 11784 11790 11823 11807 11823 11766 11775 11784 11785 11802 11853 11889 11892 11887 11935 11981 12005 11924 11948 11900 11829 11861 11860 11800 11821 11851 11835 11813 11797 11729 11665 11622 11618 11628 11600 11606 11656 11659 11710 11764 11806 11917 12007 12093 12217 12232 12312 12304 12372 12350 12324 12326 12323 12361 12438 12463 12483 12547 12599 12611 12667 12665 12670 12654 12680 12681 12671 12716 12700 12675 12665 12683 12657 12676 12652 12697 12648 12613 12504 12474 12460 12397 12377 12403 12378 12311 12276 12268 12265 12247 12201 12161 12081 12034 11991 11961 11893 11997 12052 12120 12203 12292 12450 12544 12613 12673 12803 12912 13021 13091 13124 13199 13292 13348 13349 13427 13505 13608 13655 13760 13772 13792 13858 13848 13885 13950 14026 14066 14091 14117 14138 14077 14059 13987 13953 13941 13946 13948 13940 13956 13918 13905 13862 13810 13737 13798 13833 13821 13888 13890 13887 13928 13911 13917 13992 14014 13988 14043 14073 14154 14240 14276 14299 14336 14365 14354 14288 14347 14365 14355 14376 14401 14400 14483 14533 14597 14620 14522 14434 14333 14290 14291 14246 14176 14155 14141 14138 14116 14072 14036 13998 13960 13882 13914 13945 13981 13988 14027 14113 14189 14256 14244 14191 14181 14104 14124 14145 14129 14123 14097 14119 14073 14026 14007 13962 13942 13960 13961 13942 13928 13941 13943 13943 13961 13968
17726 17765 17855 17847 17816 17818 17847 17817 17846 17803 17734 17654 17624 17575 17487 17491 17470 17449 17481 17440 17384 17326 17246 17135 17079 16998 16918 16837 16776 16708 16637 16594 16588 16613 16594 16545 16434 16294 16155 16079 16004 15955 15968 15941 15859 15840 15851 15765 15630 15533 15487 15438 15363 15365 15339 15391 15413 15410 15431 15423 15446 15435 15482 15485 15464 15474 15487 15542 15554 15526 15500 15567 15587 15596 15628 15663 15743 15735 15750 15747 15731 15688 15673 15664 15646 15580 15536 15517 15509 15468 15429 15373 15326 15315 15330 15264 15139 15079 15034 14985 14963 14968 15009 14987 15020 15032 14992 14973 15016 15021 15017 14931 14866 14866 14830 14828 14839 14793 14784 14801 14824 14914 14993 14927 14821 14703 14568 14482 14372 14208 14058 13930 13773 13646 13482 13405 13319 13187 13042 12964 12863 12783 12690 12583 12511 12388 12314 12246 12142 12032 11888 11824 11708 11626 11606 11551 11534 11432 11356 11300 11194 11180 11142 11091 11033 10947 10904 10916 10930 10884 10884 10856 10824 10802 10736 10675 10593 10488 10335 10292 10251 10203 10146 10037 9938 9824 9768 9826 9898 10032 10126 10200 10328 10392 10432 10469 10533 10579 10683 10809 10882 10955 11069 11084 11142 11221 11298 11319 11362 11370 11391 11445 11438 11410 11429 11412 11419 11401 11438 11483 11560 11551 11583 11550 11574 11534 11508 11510 11492 11433 11351 11353 11322 11285 11307 11288 11243 11230 11158 11089 11009 10986 10911 10918 10937 10864 10853 10858 10855 10882 10938 10963 11044 11114 11154 11156 11102 11156 11151 11191 11266 11260 11301 11233 11204 11170 11200 11252 11272 11325 11377 11337 11333 11333 11372 11459 11494 11489 11491 11565 11698 11769 11851 11863 11879 11886 11852 11798 11762 11736 11751 11843 11900 11933 11931 11944 11942 11996 12062 12009 12020 11970 11888 11939 11951 11905 11914 11938 11960 11897 11895 11809 11752 11686 11676 11651 11603 11598 11658 11676 11739 11795 11869 11966 12061 12150 12269 12301 12354 12400 12430 12394 12385 12362 12390 12420 12511 12487 12523 12575 12621 12637 12696 12721 12705 12716 12675 12653 12631 12683 12680 12675 12633 12683 12677 12676 12701 12707 12703 12675 12587 12543 12513 12453 12397 12403 12382 12314 12283 12278 12251 12193 12197 12143 12036 12022 11972 11939 11917 11982 12058 12101 12177 12311 12437 12521 12586 12623 12724 12859 12988 13061 13072 13172 13269 13270 13310 13380 13474 13548 13654 13756 13805 13843 13840 13843 13851 13919 14038 14084 14147 14150 14150 14080 14074 13998 13976 13956 13985 13988 13959 14005 13993 13939 13856 13814 13753 13789 13846 13823 13840 13878 13918 13952 13938 13949 13970 13961 13993 13994 14050 14112 14188 14249 14261 14307 14357 14362 14312 14329 14324 14310 14354 14379 14390 14432 14465 14498 14517 14419 14370 14269 14232 14231 14184 14095 14055 14032 14058 14031 14018 13992 13927 13916 13855 13912 13918 13959 13994 14032 14134 14160 14243 14245 14189 14145 14067 14129 14136 14153 14123 14106 14083 13993 13958 13902 13864 13884 13869 13874 13937 13907 13912 13900 13908 13847 13846
17721 17794 17855 17811 17825 17776 17767 17733 17745 17696 17658 17599 17601 17569 17480 17504 17473 17467 17462 17408 17350 17345 17280 17152 17110 17036 16980 16870 16816 16711 16668 16649 16591 16583 16604 16517 16385 16276 16203 16157 16092 16024 15975 15936 15874 15903 15905 15792 15658 15617 15558 15466 15431 15458 15426 15455 15445 15486 15494 15492 15509 15499 15565 15569 15541 15532 15564 15572 15554 15588 15600 15613 15663 15673 15716 15729 15815 15811 15800 15817 15755 15751 15751 15722 15686 15656 15633 15600 15579 15600 15568 15503 15433 15396 15413 15303 15238 15123 15071 15025 15038 15045 15064 15095 15113 15135 15111 15056 15094 15050 15053 15004 14947 14888 14826 14850 14854 14804 14807 14847 14874 14929 14974 14895 14823 14662 14540 14452 14292 14163 14033 13942 13821 13717 13571 13487 13376 13231 13146 13029 12955 12795 12689 12632 12557 12443 12372 12282 12152 12066 11971 11892 11818 11773 11698 11614 11593 11533 11487 11339 11252 11200 11188 11151 11042 11035 10970 10982 10999 10949 10921 10927 10935 10848 10826 10727 10653 10524 10434 10385 10283 10267 10241 10157 10068 9931 9841 9904 9979 10084 10215 10287 10365 10464 10534 10601 10664 10725 10754 10896 10981 11031 11121 11159 11235 11291 11309 11377 11378 11414 11498 11496 11545 11493 11474 11440 11418 11452 11472 11481 11524 11593 11654 11606 11558 11561 11522 11550 11583 11483 11402 11461 11470 11449 11441 11391 11314 11351 11306 11245 11153 11065 11015 11017 11016 11029 10997 10961 10930 10959 10946 11018 11086 11169 11215 11179 11181 11211 11240 11270 11305 11334 11367 11295 11269 11222 11244 11306 11342 11378 11459 11450 11457 11483 11512 11556 11587 11609 11628 11689 11730 11775 11865 11828 11858 11831 11830 11795 11833 11849 11829 11922 11950 11926 11950 11936 11983 12009 12063 12061 12039 11951 11892 11909 11934 11920 11907 11901 11933 11911 11908 11841 11752 11738 11674 11693 11703 11698 11704 11734 11784 11844 11917 12007 12074 12180 12296 12301 12320 12379 12383 12369 12370 12326 12364 12386 12477 12451 12513 12564 12616 12622 12657 12682 12705 12704 12720 12675 12665 12707 12733 12720 12664 12670 12659 12634 12694 12668 12716 12666 12598 12571 12508 12473 12376 12386 12371 12292 12314 12282 12244 12146 12133 12011 11934 11933 11893 11841 11812 11902 11961 12094 12183 12287 12396 12472 12561 12611 12701 12860 12963 13028 13043 13110 13230 13233 13297 13341 13399 13528 13627 13666 13730 13739 13777 13821 13865 13950 14008 14020 14048 14084 14073 13997 13986 13927 13895 13922 13898 13883 13909 13928 13971 13923 13832 13810 13700 13708 13784 13809 13798 13847 13896 13933 13926 13949 13957 13989 14006 14063 14073 14090 14118 14182 14197 14257 14275 14251 14275 14317 14286 14352 14385 14368 14345 14405 14439 14459 14519 14437 14338 14291 14231 14194 14217 14105 14074 14060 14061 14040 14067 14012 13970 13939 13862 13914 13937 13953 13943 14043 14116 14164 14242 14203 14203 14148 14072 14121 14105 14092 14075 14040 14029 14001 13916 13840 13824 13824 13871 13857 13917 13897 13884 13815 13820 13810 13798
17681 17747 17795 17788 17800 17758 17733 17661 17635 17622 17604 17614 17570 17566 17527 17496 17485 17484 17421 17371 17341 17309 17294 17179 17083 17009 16995 16885 16819 16698 16637 16624 16636 16609 16587 16496 16392 16323 16229 16179 16174 16088 16021 15983 15947 15954 15965 15854 15717 15670 15620 15551 15501 15499 15507 15547 15541 15518 15558 15564 15624 15605 15608 15649 15633 15629 15655 15620 15602 15632 15673 15659 15694 15776 15802 15820 15825 15828 15859 15863 15825 15826 15772 15740 15719 15713 15673 15668 15664 15700 15674 15581 15527 15517 15509 15387 15285 15226 15172 15116 15089 15062 15059 15151 15184 15161 15172 15115 15114 15086 15074 15054 14973 14898 14884 14884 14932 14858 14849 14861 14929 14962 14975 14868 14774 14617 14459 14389 14272 14123 13998 13906 13861 13726 13638 13497 13401 13282 13194 13092 12991 12858 12740 12687 12646 12533 12381 12302 12205 12158 12109 12028 11897 11832 11808 11718 11664 11612 11563 11435 11351 11270 11242 11200 11102 11082 11004 11007 11041 10991 10970 11008 10984 10931 10886 10770 10677 10605 10491 10428 10352 10336 10294 10220 10144 10024 9956 10027 10099 10217 10324 10411 10444 10581 10697 10771 10837 10843 10873 10981 11052 11110 11143 11206 11303 11310 11369 11410 11458 11532 11562 11605 11596 11555 11529 11496 11461 11456 11447 11523 11542 11638 11675 11604 11568 11579 11576 11614 11642 11604 11518 11537 11577 11521 11515 11482 11421 11454 11430 11343 11266 11200 11119 11104 11109 11131 11107 11075 11066 11029 11002 11052 11085 11208 11283 11267 11228 11291 11309 11344 11391 11439 11469 11424 11328 11309 11287 11382 11430 11450 11527 11564 11545 11595 11634 11666 11673 11665 11713 11766 11789 11788 11836 11819 11831 11857 11854 11839 11879 11903 11885 11944 11990 12000 11999 11985 12026 12073 12093 12120 12093 12016 11933 11932 11982 11962 11945 11901 11857 11900 11899 11799 11755 11726 11729 11786 11795 11797 11770 11833 11857 11876 11943 12055 12121 12213 12276 12276 12252 12300 12319 12350 12343 12319 12302 12361 12422 12427 12480 12568 12606 12623 12646 12697 12706 12704 12715 12706 12760 12781 12751 12726 12667 12662 12631 12605 12628 12643 12716 12685 12637 12556 12490 12459 12416 12395 12343 12284 12290 12229 12182 12104 12008 11928 11893 11857 11863 11820 11768 11832 11906 12078 12205 12329 12408 12411 12477 12582 12681 12838 12935 12955 13036 13100 13177 13254 13271 13305 13385 13508 13579 13655 13676 13691 13739 13798 13850 13894 13970 13957 13972 14015 14007 13962 13886 13862 13831 13820 13777 13818 13862 13881 13934 13879 13866 13801 13674 13659 13687 13708 13769 13827 13869 13845 13871 13905 13948 14026 14042 14085 14074 14097 14087 14101 14134 14174 14222 14181 14184 14258 14283 14307 14354 14333 14341 14366 14433 14481 14488 14405 14322 14277 14207 14206 14217 14165 14109 14047 14015 14019 14073 13994 13963 13926 13905 13912 13894 13891 13930 14000 14086 14148 14202 14193 14161 14089 14079 14072 14114 14089 14087 14037 13966 13947 13880 13833 13813 13833 13875 13864 13904 13895 13828 13781 13792 13790 13778
17724 17787 17832 17751 17750 17686 17699 17617 17598 17609 17556 17576 17570 17576 17540 17487 17470 17429 17378 17324 17284 17252 17296 17190 17140 17035 16971 16918 16820 16764 16660 16630 16640 16595 16563 16485 16397 16329 16314 16226 16231 16145 16080 16035 15967 16011 16062 15923 15789 15729 15668 15630 15546 15513 15558 15607 15566 15580 15675 15696 15681 15693 15670 15652 15650 15668 15730 15694 15688 15719 15687 15753 15789 15840 15890 15874 15888 15846 15867 15895 15879 15894 15852 15839 15772 15746 15727 15732 15749 15749 15748 15680 15657 15608 15620 15530 15415 15339 15249 15238 15225 15138 15139 15204 15245 15232 15241 15199 15191 15156 15121 15092 15006 14942 14887 14928 14916 14884 14901 14947 14951 14978 14930 14812 14731 14558 14381 14275 14168 14099 13995 13889 13837 13750 13662 13535 13437 13397 13320 13185 13099 12930 12805 12713 12696 12540 12420 12307 12273 12247 12165 12092 11994 11916 11932 11829 11768 11751 11701 11574 11490 11405 11310 11239 11164 11107 11017 11061 11076 11034 10998 11035 11043 11008 10958 10888 10770 10653 10564 10557 10478 10434 10385 10331 10255 10176 10100 10200 10231 10366 10471 10503 10567 10674 10784 10839 10921 10981 11020 11097 11106 11153 11182 11279 11351 11388 11414 11496 11551 11644 11702 11713 11719 11656 11596 11566 11599 11543 11537 11561 11619 11623 11690 11634 11588 11583 11616 11677 11691 11641 11609 11600 11650 11611 11593 11612 11601 11567 11546 11491 11387 11297 11197 11186 11212 11211 11173 11158 11105 11060 11061 11084 11145 11235 11313 11320 11326 11343 11394 11452 11470 11499 11548 11478 11413 11415 11349 11411 11507 11524 11582 11600 11660 11669 11725 11743 11766 11756 11786 11823 11847 11799 11850 11818 11879 11867 11858 11846 11892 11943 11956 11988 12054 12059 12054 12090 12068 12089 12115 12144 12130 12086 12029 11957 11930 11924 11912 11874 11884 11871 11877 11824 11770 11747 11745 11810 11801 11824 11886 11908 11893 11923 11967 12106 12184 12263 12270 12272 12235 12271 12279 12304 12338 12344 12299 12328 12398 12405 12483 12513 12585 12609 12636 12658 12722 12745 12760 12801 12813 12758 12753 12735 12675 12664 12668 12677 12626 12681 12683 12627 12616 12482 12420 12388 12377 12364 12345 12282 12270 12219 12167 12096 12004 11915 11890 11852 11802 11745 11743 11809 11848 11981 12169 12280 12352 12439 12478 12589 12686 12763 12893 12968 13071 13124 13182 13223 13221 13261 13348 13412 13517 13585 13588 13660 13702 13740 13825 13899 13928 13932 13895 13937 13902 13822 13807 13748 13719 13703 13749 13739 13806 13842 13883 13842 13841 13727 13690 13670 13631 13698 13703 13764 13786 13870 13897 13911 13954 13983 14049 14047 14045 14076 14065 14083 14078 14151 14178 14133 14143 14204 14245 14290 14360 14365 14350 14405 14443 14480 14492 14435 14332 14252 14165 14156 14211 14171 14162 14124 14038 14054 14088 14055 13970 13949 13877 13943 13955 13952 13941 13967 14022 14054 14109 14126 14186 14134 14142 14165 14142 14086 14071 14031 13959 13925 13905 13898 13821 13861 13870 13862 13871 13893 13873 13834 13773 13733 13714
17731 17788 17808 17733 17668 17651 17645 17583 17578 17570 17504 17544 17560 17533 17530 17485 17445 17387 17291 17267 17223 17197 17236 17184 17139 17045 16998 16961 16866 16782 16691 16717 16687 16652 16562 16506 16434 16391 16340 16308 16242 16151 16112 16084 16050 16066 16110 15991 15881 15788 15679 15644 15588 15573 15621 15641 15643 15689 15784 15777 15716 15711 15724 15745 15712 15724 15750 15770 15731 15763 15764 15872 15918 15961 16026 15971 15936 15904 15902 15885 15899 15916 15928 15879 15887 15860 15825 15851 15818 15818 15878 15834 15801 15753 15739 15633 15562 15441 15373 15364 15308 15245 15235 15284 15271 15274 15300 15275 15292 15235 15218 15154 15046 14986 14909 14941 14921 14944 14985 15006 14996 14964 14936 14766 14649 14500 14353 14251 14099 14009 13935 13877 13857 13752 13708 13582 13505 13476 13424 13300 13163 13024 12903 12779 12707 12595 12424 12361 12345 12311 12278 12163 12113 12031 12004 11939 11892 11860 11790 11669 11573 11477 11399 11312 11189 11151 11085 11108 11091 11073 11083 11071 11091 11095 11043 10975 10899 10770 10685 10649 10564 10515 10416 10358 10356 10248 10187 10321 10395 10459 10561 10633 10675 10772 10853 10930 11013 11050 11133 11158 11186 11218 11274 11338 11395 11439 11497 11587 11702 11727 11815 11826 11785 11725 11703 11698 11695 11657 11569 11653 11689 11667 11698 11657 11646 11673 11720 11737 11736 11687 11642 11646 11709 11714 11720 11707 11731 11692 11640 11573 11452 11369 11259 11265 11328 11277 11280 11234 11158 11157 11102 11113 11170 11248 11334 11363 11365 11386 11455 11518 11523 11578 11579 11535 11513 11493 11471 11500 11541 11593 11694 11707 11785 11797 11857 11852 11825 11860 11901 11884 11861 11835 11865 11851 11893 11908 11882 11904 11900 11951 12002 12077 12119 12163 12149 12152 12165 12142 12181 12169 12129 12108 12075 11974 11936 11918 11855 11838 11881 11886 11829 11800 11790 11804 11799 11805 11866 11910 11947 11959 11954 11977 12033 12138 12198 12272 12318 12314 12269 12314 12298 12345 12340 12304 12261 12293 12351 12412 12490 12513 12567 12580 12622 12691 12783 12794 12830 12814 12805 12793 12742 12753 12737 12727 12691 12685 12664 12655 12633 12581 12566 12456 12400 12388 12402 12374 12340 12290 12223 12148 12135 12012 11953 11875 11844 11794 11779 11696 11661 11782 11843 11960 12126 12243 12319 12404 12482 12553 12631 12754 12907 12993 13099 13126 13167 13194 13199 13279 13309 13348 13448 13468 13553 13656 13716 13762 13782 13839 13843 13867 13838 13846 13806 13725 13672 13640 13636 13624 13670 13701 13723 13791 13835 13781 13756 13702 13703 13675 13629 13674 13678 13740 13748 13841 13873 13939 13968 13999 14007 14035 14051 14064 14062 14077 14042 14092 14150 14127 14158 14223 14240 14317 14376 14413 14393 14451 14479 14480 14503 14442 14350 14231 14177 14153 14153 14139 14154 14136 14071 14055 14086 14048 13952 13923 13904 13944 13954 13953 13935 13968 13978 14022 14066 14106 14174 14154 14156 14180 14153 14111 14033 13987 13982 13973 13922 13927 13891 13923 13898 13873 13834 13858 13871 13807 13720 13691 13672
17689 17777 17858 17775 17657 17675 17640 17584 17528 17544 17526 17571 17576 17532 17486 17403 17371 17269 17183 17175 17167 17184 17151 17107 17088 17057 16991 16968 16918 16834 16774 16763 16696 16618 16593 16563 16459 16451 16417 16381 16350 16254 16185 16165 16091 16123 16164 16039 15926 15821 15708 15685 15663 15659 15733 15709 15759 15760 15830 15791 15800 15804 15829 15779 15773 15807 15817 15820 15858 15865 15861 15930 15993 16043 16094 16039 16029 15981 15992 16019 16051 16052 16063 16020 16042 15986 15940 15899 15909 15918 15930 15873 15826 15796 15789 15708 15627 15504 15484 15439 15432 15401 15373 15356 15328 15304 15340 15306 15315 15267 15256 15194 15055 15001 14926 14936 14968 14938 14970 14988 14961 14980 14957 14757 14658 14504 14362 14261 14098 14028 13983 13923 13872 13795 13732 13649 13552 13476 13429 13340 13214 13081 12972 12873 12735 12617 12493 12409 12393 12367 12288 12240 12166 12135 12074 12013 11959 11876 11822 11733 11666 11564 11536 11415 11359 11249 11209 11196 11129 11081 11094 11115 11132 11112 11053 11024 10946 10891 10763 10745 10666 10590 10479 10426 10412 10385 10342 10436 10541 10584 10673 10736 10838 10885 10996 11037 11109 11090 11159 11170 11189 11236 11310 11398 11477 11541 11578 11690 11742 11826 11895 11849 11855 11828 11742 11733 11724 11690 11615 11712 11728 11753 11741 11709 11725 11764 11784 11779 11797 11736 11700 11760 11773 11818 11818 11838 11862 11766 11719 11623 11561 11425 11364 11354 11435 11342 11368 11312 11223 11217 11149 11207 11233 11276 11386 11442 11439 11484 11528 11579 11569 11648 11641 11615 11571 11495 11483 11542 11600 11654 11734 11809 11830 11844 11901 11920 11956 11937 11965 11959 11907 11903 11959 11914 11929 11926 11944 11984 12015 12078 12084 12092 12156 12182 12171 12142 12192 12167 12161 12116 12056 12055 11982 11966 11941 11922 11859 11853 11849 11854 11857 11819 11847 11849 11892 11893 11926 11981 12009 12018 12051 12020 12042 12121 12179 12268 12321 12299 12268 12297 12293 12317 12377 12308 12264 12331 12398 12402 12460 12549 12591 12624 12637 12743 12826 12790 12821 12809 12809 12811 12747 12789 12779 12786 12748 12745 12722 12668 12642 12591 12549 12469 12405 12399 12354 12378 12374 12283 12237 12167 12128 12077 11979 11918 11875 11816 11757 11733 11668 11728 11839 11920 12051 12150 12269 12379 12447 12566 12634 12773 12882 12933 13074 13114 13159 13166 13210 13277 13283 13295 13406 13413 13447 13530 13631 13682 13678 13684 13724 13788 13780 13750 13750 13681 13682 13643 13620 13617 13599 13616 13632 13712 13787 13709 13656 13620 13651 13656 13624 13674 13662 13689 13742 13812 13861 13901 13920 13968 13959 13946 14018 13985 14032 14037 13975 14001 14044 14092 14119 14175 14226 14258 14351 14323 14344 14426 14421 14464 14495 14416 14356 14297 14244 14195 14177 14154 14113 14097 14013 14041 14013 14024 13980 13921 13907 13906 13905 13887 13924 13967 13961 13988 14054 14080 14155 14124 14078 14094 14123 14048 13952 13930 13963 13923 13887 13919 13924 13941 13976 13899 13877 13876 13910 13861 13783 13702 13665
17710 17785 17856 17760 17693 17680 17668 17598 17528 17533 17539 17565 17533 17463 17430 17355 17288 17224 17128 17106 17068 17097 17088 17057 17029 17002 17037 17007 16925 16868 16807 16756 16718 16646 16631 16572 16517 16549 16536 16471 16399 16353 16249 16226 16181 16209 16245 16122 15989 15906 15799 15788 15755 15769 15810 15833 15880 15855 15841 15858 15878 15870 15914 15864 15852 15890 15878 15915 15966 15948 15969 16016 16012 16086 16122 16087 16067 16039 16042 16105 16161 16190 16164 16172 16137 16128 16064 15994 15985 16023 16034 15958 15880 15849 15845 15738 15675 15586 15542 15512 15512 15495 15455 15438 15367 15317 15323 15332 15360 15353 15338 15224 15121 15052 14962 14960 14976 14929 14917 14973 14991 14937 14945 14770 14651 14562 14434 14298 14141 14094 14043 13959 13891 13810 13725 13623 13547 13529 13481 13418 13330 13220 13091 12974 12799 12694 12600 12509 12426 12379 12332 12323 12263 12163 12117 12082 12015 11925 11887 11832 11740 11686 11628 11525 11469 11375 11282 11249 11208 11154 11130 11125 11144 11102 11096 11075 11015 10979 10881 10837 10732 10643 10543 10470 10460 10452 10457 10554 10680 10743 10842 10872 10959 11009 11101 11149 11186 11173 11187 11208 11242 11317 11372 11427 11523 11598 11706 11748 11775 11862 11927 11891 11897 11867 11812 11786 11735 11670 11670 11738 11798 11813 11801 11797 11799 11856 11865 11887 11915 11860 11795 11821 11889 11946 11970 11949 11938 11876 11776 11706 11669 11534 11459 11477 11485 11414 11396 11387 11337 11311 11246 11219 11253 11316 11425 11487 11502 11495 11546 11579 11656 11705 11731 11664 11607 11550 11554 11651 11714 11770 11827 11872 11891 11955 11958 12051 12094 12094 12082 12015 11981 12007 12023 11990 11954 11983 11983 12062 12092 12149 12161 12171 12238 12177 12166 12182 12246 12221 12173 12092 12042 11987 11942 11972 11969 11921 11898 11858 11873 11846 11850 11853 11915 11940 11933 11956 11963 12002 12054 12104 12106 12075 12071 12117 12205 12209 12273 12243 12260 12231 12267 12337 12378 12331 12277 12306 12391 12421 12485 12550 12631 12653 12685 12754 12811 12842 12859 12796 12761 12791 12769 12811 12798 12805 12764 12777 12747 12693 12647 12602 12557 12485 12404 12395 12337 12326 12355 12279 12250 12174 12147 12067 12021 11966 11933 11853 11768 11706 11635 11735 11804 11908 11991 12071 12184 12282 12417 12552 12625 12702 12799 12914 13002 13107 13165 13158 13187 13241 13252 13266 13335 13371 13363 13425 13513 13572 13592 13617 13639 13699 13726 13681 13643 13641 13670 13638 13600 13552 13509 13541 13569 13608 13687 13660 13596 13550 13565 13620 13654 13654 13677 13727 13738 13820 13895 13917 13886 13872 13907 13890 13923 13912 13954 13957 13939 13960 13992 14009 14046 14142 14180 14234 14290 14310 14344 14399 14402 14392 14436 14360 14329 14290 14255 14238 14162 14089 14040 14012 14020 13975 13922 13954 13949 13888 13860 13909 13912 13894 13925 13923 13981 14004 14037 14053 14130 14106 14043 14066 14057 13997 13877 13934 13956 13961 13917 13891 13921 13976 14013 13967 13933 13918 13914 13839 13787 13746 13645
17767 17794 17795 17782 17727 17653 17626 17582 17522 17507 17480 17497 17415 17410 17421 17321 17236 17183 17081 17070 17061 17016 17044 17007 16999 17029 17078 17022 16988 16941 16881 16823 16721 16667 16674 16640 16601 16589 16608 16539 16481 16402 16377 16311 16282 16255 16255 16155 16038 15974 15848 15876 15859 15831 15880 15927 15960 15886 15861 15889 15931 15941 15958 15959 15928 15974 15943 15955 16002 16027 16083 16098 16101 16167 16252 16219 16187 16192 16192 16211 16275 16236 16208 16212 16192 16217 16149 16127 16072 16047 16091 16049 15986 15919 15870 15791 15743 15654 15624 15582 15532 15521 15490 15458 15448 15405 15339 15315 15327 15351 15370 15310 15225 15145 15055 15005 14971 14946 14943 14962 14918 14929 14870 14753 14681 14572 14429 14284 14196 14113 14020 13909 13860 13794 13701 13650 13629 13556 13525 13483 13412 13262 13148 13064 12941 12829 12642 12592 12543 12484 12401 12395 12342 12248 12196 12145 12072 11969 11902 11879 11804 11762 11760 11662 11581 11510 11395 11355 11322 11224 11177 11145 11143 11113 11150 11107 11052 10993 10907 10844 10789 10758 10687 10596 10567 10588 10593 10655 10745 10827 10949 10994 11073 11153 11207 11213 11238 11283 11278 11279 11320 11411 11425 11471 11571 11711 11817 11813 11853 11958 11977 11950 11925 11919 11893 11844 11790 11728 11734 11783 11831 11878 11870 11864 11878 11891 11915 11969 12015 12000 11963 11956 12020 12057 12125 12044 12014 11953 11845 11779 11727 11641 11585 11582 11579 11531 11478 11433 11396 11363 11267 11327 11337 11382 11465 11505 11547 11558 11541 11594 11703 11747 11768 11720 11624 11600 11627 11700 11760 11821 11885 11925 11977 12063 12074 12146 12190 12188 12130 12083 12054 12038 12077 12080 12060 12055 12053 12149 12186 12192 12228 12261 12304 12265 12191 12228 12238 12200 12117 12099 12046 11988 11917 11916 11964 11941 11888 11882 11871 11865 11900 11900 11940 11960 11997 12038 12035 12071 12073 12136 12115 12103 12126 12185 12224 12261 12282 12289 12287 12265 12293 12319 12386 12329 12303 12325 12368 12405 12450 12551 12591 12646 12671 12724 12786 12819 12848 12780 12718 12756 12750 12813 12842 12837 12843 12755 12706 12686 12593 12568 12530 12451 12416 12412 12406 12410 12382 12288 12251 12182 12147 12076 12044 12003 11929 11878 11805 11713 11639 11707 11778 11846 11964 12042 12079 12215 12348 12452 12600 12699 12808 12903 13012 13073 13164 13202 13229 13225 13220 13175 13207 13244 13282 13301 13387 13461 13489 13535 13606 13631 13702 13660 13633 13644 13662 13605 13562 13504 13468 13547 13543 13595 13663 13629 13611 13577 13542 13565 13592 13666 13728 13762 13771 13828 13916 13928 13885 13859 13857 13916 13926 13925 13920 13973 13942 13951 13960 13948 14013 14064 14125 14219 14291 14331 14348 14373 14382 14401 14432 14380 14396 14286 14255 14218 14099 14038 14025 13998 13944 13900 13928 13887 13872 13839 13826 13821 13829 13808 13877 13894 13958 14009 14068 14066 14090 14078 14039 14002 13989 13956 13861 13846 13891 13889 13884 13893 13873 13963 14027 14006 13953 13969 13909 13847 13833 13755 13670
17830 17826 17794 17761 17701 17637 17570 17550 17560 17501 17450 17416 17355 17363 17350 17282 17204 17162 17061 17034 17014 16989 16965 17008 16992 17029 17123 17033 16997 17000 16969 16862 16760 16733 16655 16679 16698 16689 16663 16606 16523 16500 16504 16461 16422 16383 16290 16216 16137 16074 15960 15968 15960 15935 15913 15931 15980 15981 15924 15946 15946 15992 16033 16034 16028 16045 16066 16045 16074 16075 16140 16175 16245 16276 16336 16334 16354 16329 16288 16310 16341 16280 16278 16262 16305 16320 16289 16235 16163 16127 16112 16086 16061 16005 15958 15892 15853 15759 15651 15650 15598 15599 15554 15536 15509 15454 15398 15381 15357 15358 15368 15303 15287 15186 15093 15014 14976 14960 14965 14922 14910 14900 14828 14754 14667 14563 14453 14313 14207 14085 14026 13917 13827 13774 13677 13653 13653 13603 13583 13530 13465 13340 13269 13130 13054 12926 12739 12708 12623 12578 12506 12406 12368 12335 12240 12161 12122 12074 11977 11969 11913 11895 11880 11788 11695 11607 11460 11454 11395 11326 11262 11189 11156 11135 11172 11134 11117 11048 10987 10973 10900 10812 10773 10707 10673 10690 10691 10762 10825 10933 11062 11146 11252 11304 11335 11339 11302 11324 11320 11386 11409 11465 11511 11564 11670 11772 11886 11943 11981 12020 12026 11986 11978 11923 11923 11839 11783 11793 11769 11863 11907 11954 11939 11946 11959 11988 12000 12058 12067 12089 12074 12137 12157 12185 12237 12150 12068 11972 11924 11867 11798 11752 11763 11753 11702 11630 11542 11521 11486 11389 11306 11369 11371 11430 11520 11548 11557 11584 11578 11637 11732 11726 11766 11745 11696 11697 11722 11792 11849 11905 11973 12046 12128 12143 12187 12205 12259 12222 12224 12201 12166 12122 12099 12099 12128 12157 12166 12181 12240 12219 12257 12262 12330 12280 12277 12262 12239 12180 12124 12095 12044 11957 11889 11876 11921 11912 11906 11885 11896 11902 11923 11948 11913 11975 12015 12052 12052 12078 12104 12137 12188 12183 12180 12230 12303 12307 12348 12345 12337 12324 12364 12374 12397 12396 12344 12365 12390 12430 12414 12497 12568 12656 12696 12750 12771 12822 12830 12759 12736 12731 12752 12785 12870 12888 12882 12801 12709 12632 12577 12543 12499 12474 12467 12453 12425 12448 12429 12330 12280 12230 12181 12095 12046 12007 11983 11924 11815 11693 11604 11663 11763 11842 11940 11989 12028 12157 12239 12354 12528 12653 12783 12880 13035 13115 13210 13198 13226 13201 13147 13119 13141 13162 13213 13222 13296 13379 13405 13467 13539 13563 13624 13597 13583 13578 13593 13560 13537 13502 13467 13514 13511 13562 13587 13614 13584 13518 13503 13567 13587 13686 13781 13851 13868 13871 13877 13881 13888 13857 13854 13898 13899 13938 13944 13961 13953 13936 13914 13905 13951 14006 14098 14167 14262 14317 14324 14312 14333 14372 14454 14428 14409 14298 14250 14194 14088 14070 14024 13954 13923 13871 13878 13894 13860 13844 13770 13774 13736 13752 13822 13876 13976 14058 14128 14098 14036 14023 14021 14006 13939 13866 13835 13793 13804 13817 13819 13868 13856 13925 14003 14037 14036 14024 13959 13931 13858 13781 13725
17887 17832 17806 17703 17672 17670 17598 17633 17612 17520 17436 17439 17402 17324 17314 17256 17217 17157 17075 17059 17051 17008 16970 16986 16964 16998 17064 16956 16934 16920 16952 16900 16794 16757 16714 16731 16700 16757 16749 16712 16652 16562 16539 16535 16502 16488 16399 16329 16275 16219 16102 16043 16017 15970 15971 16012 16046 16057 16019 16041 16033 16122 16151 16110 16158 16120 16092 16106 16171 16213 16221 16223 16279 16322 16318 16321 16365 16360 16357 16319 16352 16296 16268 16298 16322 16367 16390 16304 16271 16221 16166 16117 16055 16050 16046 15934 15885 15803 15664 15684 15627 15562 15546 15524 15496 15427 15381 15361 15377 15323 15314 15320 15295 15204 15115 15057 15029 15023 14991 14934 14940 14868 14865 14819 14740 14660 14537 14390 14225 14161 14053 13958 13836 13732 13645 13669 13668 13624 13548 13502 13471 13421 13319 13152 13051 12949 12808 12774 12667 12601 12594 12519 12432 12399 12317 12298 12224 12142 12114 12094 12018 12018 11952 11887 11761 11659 11544 11496 11447 11399 11303 11233 11232 11194 11249 11154 11113 11054 11044 11012 10921 10865 10816 10811 10814 10761 10727 10786 10869 10997 11112 11212 11327 11397 11452 11426 11443 11422 11414 11467 11478 11557 11612 11685 11758 11891 11989 12011 12071 12102 12094 12052 12004 11972 11983 11897 11828 11846 11822 11862 11917 11998 12001 12078 12080 12075 12097 12146 12150 12127 12132 12211 12229 12222 12284 12211 12147 12059 12017 12004 11936 11908 11913 11838 11816 11685 11629 11591 11543 11506 11443 11475 11485 11532 11643 11650 11647 11686 11695 11719 11751 11769 11798 11782 11751 11732 11762 11832 11921 11953 12043 12056 12117 12172 12221 12274 12272 12265 12248 12230 12199 12184 12152 12156 12215 12198 12260 12246 12250 12273 12264 12285 12355 12351 12333 12319 12296 12226 12119 12107 12046 12017 11990 11943 11950 11995 11972 11942 11940 11967 11977 11953 11969 11982 12019 12003 11994 12019 12058 12130 12167 12162 12165 12181 12242 12235 12255 12259 12320 12312 12282 12356 12386 12333 12315 12378 12361 12412 12465 12537 12563 12654 12732 12789 12812 12810 12806 12829 12840 12797 12797 12837 12885 12853 12875 12774 12694 12623 12580 12578 12496 12508 12536 12480 12430 12400 12431 12365 12275 12225 12168 12121 12055 11988 11932 11894 11798 11687 11634 11700 11781 11839 11920 12007 12060 12180 12250 12350 12517 12638 12739 12817 12952 13102 13190 13162 13162 13192 13172 13143 13101 13145 13166 13219 13297 13356 13450 13491 13484 13567 13593 13604 13564 13539 13590 13568 13502 13523 13508 13536 13512 13552 13571 13594 13584 13546 13549 13613 13640 13718 13769 13793 13855 13855 13826 13855 13866 13849 13836 13851 13893 13903 13903 13918 13875 13894 13892 13921 13926 13980 14041 14095 14168 14166 14198 14263 14293 14344 14387 14359 14339 14257 14227 14136 14069 14009 13994 13958 13896 13869 13893 13862 13834 13791 13753 13782 13746 13734 13777 13892 13942 14037 14135 14096 14030 14014 13985 13994 13956 13869 13851 13843 13822 13833 13850 13883 13910 13957 14015 13962 13971 13953 13933 13876 13839 13748 13692
17898 17801 17756 17688 17676 17689 17667 17654 17602 17517 17449 17459 17427 17341 17317 17276 17188 17096 17069 17052 17053 16987 16984 16939 16930 16994 16996 16921 16904 16923 16924 16880 16820 16756 16717 16732 16749 16793 16785 16779 16742 16656 16631 16649 16621 16565 16508 16454 16400 16346 16250 16182 16095 16066 16038 16021 16061 16075 16148 16139 16158 16232 16264 16222 16243 16212 16181 16218 16283 16323 16308 16283 16307 16354 16350 16362 16374 16356 16381 16329 16329 16302 16291 16335 16381 16394 16440 16400 16317 16255 16200 16141 16113 16085 16081 15995 15937 15841 15718 15728 15690 15588 15509 15522 15474 15435 15424 15431 15382 15371 15306 15265 15251 15176 15123 15101 15092 15070 15044 14999 14931 14888 14904 14830 14753 14679 14635 14498 14308 14183 14103 13968 13868 13797 13665 13640 13648 13567 13510 13492 13508 13461 13385 13211 13078 12973 12883 12812 12702 12661 12632 12574 12493 12472 12440 12387 12319 12282 12219 12197 12172 12133 12064 11938 11766 11700 11584 11545 11499 11401 11298 11282 11300 11280 11304 11236 11155 11098 11066 11043 10959 10945 10923 10940 10906 10869 10826 10904 10974 11111 11199 11294 11423 11475 11516 11542 11548 11514 11471 11543 11583 11677 11737 11767 11854 11950 12057 12089 12179 12150 12175 12101 12057 12006 12018 11956 11857 11820 11827 11909 11957 12034 12087 12167 12208 12226 12210 12256 12296 12230 12202 12222 12254 12312 12357 12291 12261 12176 12091 12096 12080 12020 12016 11914 11872 11759 11700 11680 11640 11570 11540 11566 11623 11651 11719 11731 11725 11724 11774 11772 11812 11823 11875 11855 11823 11836 11844 11928 11972 12018 12087 12117 12136 12197 12269 12309 12350 12308 12306 12286 12221 12198 12212 12222 12260 12249 12296 12272 12302 12270 12230 12329 12382 12378 12353 12343 12295 12209 12160 12142 12083 12063 12091 12029 12024 12062 12057 12005 11973 12013 12037 12013 11993 11975 11986 11978 11992 11990 12052 12124 12166 12164 12182 12190 12177 12180 12198 12246 12241 12211 12240 12286 12336 12330 12313 12359 12384 12425 12470 12516 12596 12692 12756 12823 12865 12822 12842 12860 12917 12938 12904 12910 12910 12890 12906 12835 12723 12690 12648 12597 12542 12518 12555 12508 12429 12401 12425 12346 12290 12212 12154 12069 12030 11933 11865 11821 11785 11693 11617 11697 11778 11892 11950 12005 12070 12143 12211 12351 12445 12548 12705 12779 12914 13048 13184 13154 13119 13140 13195 13155 13108 13124 13088 13184 13293 13345 13445 13446 13463 13550 13603 13595 13558 13536 13563 13525 13520 13511 13493 13528 13538 13496 13502 13574 13592 13615 13597 13644 13670 13725 13731 13745 13812 13837 13811 13836 13881 13815 13776 13785 13834 13869 13853 13828 13836 13832 13838 13859 13944 14009 14042 14053 14035 14098 14104 14151 14245 14252 14324 14309 14292 14222 14175 14118 14044 13976 13921 13894 13906 13851 13853 13863 13831 13775 13721 13747 13731 13727 13778 13887 13939 14023 14104 14033 13965 13939 13935 13944 13933 13899 13841 13835 13881 13880 13881 13868 13920 13959 13977 13941 13858 13847 13847 13834 13806 13764 13700
17863 17821 17788 17765 17732 17712 17736 17657 17622 17582 17515 17453 17465 17395 17339 17248 17231 17127 17035 17017 17026 17018 17028 17022 16964 16978 16983 16921 16946 16869 16863 16866 16805 16791 16740 16761 16761 16822 16815 16820 16831 16747 16760 16725 16704 16658 16593 16564 16505 16452 16354 16309 16209 16175 16150 16194 16203 16182 16241 16211 16250 16322 16354 16330 16312 16310 16240 16288 16348 16348 16368 16353 16392 16358 16324 16318 16345 16371 16417 16367 16377 16336 16356 16329 16357 16425 16474 16394 16338 16307 16281 16241 16147 16126 16134 16058 15962 15872 15839 15795 15696 15592 15548 15499 15456 15417 15386 15361 15367 15299 15273 15265 15243 15217 15160 15141 15106 15104 15090 15040 15053 15007 14980 14906 14796 14726 14681 14559 14408 14283 14132 14005 13867 13797 13710 13684 13680 13613 13556 13509 13496 13425 13389 13236 13136 13010 12918 12827 12774 12734 12728 12661 12581 12533 12472 12421 12382 12347 12289 12261 12267 12221 12150 11985 11848 11785 11680 11599 11529 11416 11344 11329 11314 11324 11328 11274 11203 11165 11124 11115 11073 11028 11036 10992 10941 10936 10928 11069 11162 11270 11346 11390 11513 11578 11598 11593 11662 11620 11609 11632 11687 11743 11798 11844 11970 12084 12176 12202 12268 12276 12262 12154 12136 12095 12078 12011 11977 11915 11940 11968 12029 12120 12209 12277 12315 12335 12304 12363 12373 12350 12293 12340 12362 12372 12411 12381 12318 12225 12110 12147 12116 12084 12089 12027 11947 11829 11763 11726 11687 11665 11662 11702 11762 11758 11847 11859 11866 11857 11871 11880 11846 11840 11846 11848 11901 11908 11937 11996 12016 12063 12087 12170 12214 12223 12314 12333 12382 12343 12337 12307 12261 12294 12282 12306 12286 12261 12269 12281 12261 12301 12277 12356 12363 12376 12322 12331 12328 12274 12202 12194 12202 12160 12184 12138 12125 12080 12084 12105 12079 12069 12020 12022 11969 11930 11948 11937 11954 11998 11997 12102 12155 12137 12159 12148 12158 12174 12162 12162 12171 12181 12179 12274 12288 12348 12311 12400 12471 12466 12538 12600 12680 12682 12755 12818 12846 12842 12879 12940 12942 12922 12926 12883 12888 12869 12861 12790 12743 12679 12667 12603 12604 12612 12556 12516 12418 12438 12449 12376 12295 12251 12143 12097 12035 11924 11843 11784 11751 11712 11638 11742 11816 11918 11983 12043 12125 12198 12238 12365 12498 12584 12723 12779 12903 13043 13130 13094 13099 13131 13156 13182 13132 13099 13094 13174 13247 13324 13413 13427 13443 13492 13595 13561 13509 13520 13572 13565 13603 13533 13538 13499 13510 13495 13534 13554 13594 13635 13608 13624 13650 13697 13731 13746 13807 13777 13821 13807 13840 13797 13743 13765 13752 13773 13817 13858 13839 13869 13853 13882 13885 13912 13959 13952 13938 14014 14028 14065 14177 14187 14216 14180 14134 14104 14108 14047 13954 13949 13874 13887 13863 13825 13843 13808 13782 13734 13701 13740 13741 13760 13758 13858 13959 13984 14055 14019 13957 13965 13916 13923 13865 13876 13869 13875 13954 13905 13932 13901 13907 13906 13947 13915 13853 13851 13821 13804 13756 13689 13669
17872 17819 17796 17772 17806 17770 17756 17677 17628 17594 17544 17484 17481 17383 17322 17255 17226 17133 17017 16986 17002 17033 17092 17037 16962 16983 16951 16943 16941 16860 16815 16829 16838 16817 16756 16818 16829 16823 16869 16870 16897 16846 16846 16797 16805 16739 16663 16642 16614 16540 16446 16380 16358 16344 16292 16308 16319 16315 16304 16318 16361 16370 16429 16403 16340 16364 16348 16368 16433 16460 16454 16458 16423 16394 16323 16318 16339 16373 16392 16367 16383 16383 16398 16397 16392 16473 16492 16458 16365 16312 16303 16278 16242 16195 16159 16070 15995 15935 15900 15815 15762 15638 15549 15487 15458 15438 15386 15369 15320 15282 15196 15231 15219 15205 15145 15103 15090 15124 15164 15108 15115 15057 15029 14970 14894 14803 14717 14572 14471 14300 14108 13984 13883 13828 13743 13720 13683 13624 13556 13516 13449 13427 13381 13277 13188 13100 13005 12903 12832 12802 12777 12707 12641 12619 12565 12520 12454 12425 12337 12312 12308 12245 12191 12061 11942 11814 11714 11637 11552 11488 11432 11366 11335 11345 11367 11338 11277 11216 11218 11234 11206 11129 11113 11047 11006 11016 11024 11182 11294 11373 11447 11510 11585 11607 11661 11690 11728 11760 11747 11792 11797 11880 11916 11966 12026 12168 12259 12313 12349 12367 12334 12244 12207 12171 12125 12106 12045 12005 11995 12049 12155 12244 12335 12398 12429 12396 12424 12476 12476 12429 12445 12436 12448 12494 12484 12462 12381 12262 12155 12178 12167 12204 12213 12126 12072 11929 11813 11801 11779 11766 11765 11778 11841 11879 11962 11979 11996 11956 11954 11930 11926 11878 11874 11897 11919 11979 12062 12090 12064 12115 12127 12168 12259 12292 12324 12351 12411 12384 12416 12399 12328 12318 12358 12330 12321 12324 12305 12248 12253 12277 12329 12348 12390 12390 12331 12326 12336 12254 12231 12231 12267 12245 12232 12210 12171 12117 12126 12138 12134 12082 12064 11970 11937 11915 11876 11926 11969 11962 11993 12084 12145 12184 12171 12179 12143 12115 12151 12107 12113 12144 12114 12223 12288 12342 12373 12463 12519 12553 12620 12655 12750 12724 12757 12849 12880 12891 12964 12964 13001 12944 12932 12844 12817 12847 12820 12841 12802 12726 12702 12668 12654 12649 12608 12551 12465 12449 12412 12393 12338 12259 12195 12131 12019 11912 11862 11817 11730 11683 11647 11767 11867 11944 12024 12108 12169 12250 12303 12388 12496 12628 12724 12780 12860 13007 13118 13088 13085 13153 13175 13190 13143 13096 13052 13114 13213 13261 13363 13414 13457 13464 13529 13528 13501 13526 13594 13581 13624 13596 13556 13549 13541 13517 13530 13534 13579 13599 13622 13621 13658 13707 13705 13702 13740 13769 13846 13817 13845 13771 13745 13713 13694 13685 13735 13824 13857 13842 13868 13837 13836 13850 13869 13888 13871 13910 13946 13992 14069 14079 14098 14040 14019 14040 14055 14004 13924 13899 13840 13856 13853 13793 13781 13760 13711 13657 13654 13695 13740 13746 13783 13849 13931 13989 13991 14009 13990 13959 13872 13871 13840 13898 13894 13933 13968 13983 13943 13970 13955 13917 13932 13883 13804 13774 13800 13742 13677 13676 13666
