20075 20049 19976 19921 19804 19781 19823 19689 19649 19747 19767 19784 19942 19945 20012 20054 20100 20085 20113 20115 20185 20132 20231 20165 20159 20042 20122 20222 20347 20334 20259 20236 20249 20133 20115 20081 20095 19982 19937 19877 19811 19760 19595 19552 19441 19293 19191 19028 18825 18732 18782 18747 18691 18555 18536 18521 18448 18361 18163 18106 17948 17791 17696 17570 17400 17345 17253 17119 16881 16796 16755 16551 16407 16218 16126 16032 15912 15804 15831 15737 15524 15500 15324 15306 15211 15179 15172 15124 15045 15033 15132 15047 15152 15036 14823 14785 14659 14550 14447 14309 14313 14173 13964 13873 13751 13532 13459 13509 13531 13550 13495 13423 13492 13516 13603 13665 13810 13744 13831 13902 13921 14026 14077 14082 14130 13972 13827 13799 13754 13791 13789 13902 13880 13902 13993 14209 14368 14276 14197 14300 14289 14328 14249 14175 14210 14248 14261 14322 14225 14311 14394 14406 14414 14332 14241 14262 14240 14355 14341 14413 14449 14657 14685 14787 14947 15162 15305 15477 15657 15776 15924 16127 16333 16605 16761 17113 17324 17398 17568 17617 17806 17890 18033 18128 18179 18254 18319 18358 18501 18600 18609 18541 18496 18549 18725 18775 18970 19063 19081 19315 19465 19424 19499 19513 19561 19567 19671 19630 19618 19823 19961 20133 20263 20333 20402 20646 20743 20956 21147 21242 21350 21507 21728 21960 22176 22108 22069 21955 21863 21819 21768 21641 21623 21696 21693 21619 21641 21755 21865 22008 22093 22028 21928 21875 21913 21768 21590 21582 21520 21416 21252 21294 21244 21076 20871 20701 20618
20048 20103 20045 19906 19873 19797 19802 19776 19647 19746 19726 19819 19969 20027 20089 20174 20196 20199 20318 20312 20310 20193 20196 20144 20000 19943 19958 20064 20160 20083 20074 20074 20117 20035 20040 20014 20005 19982 19940 19881 19894 19697 19624 19420 19341 19181 19060 18933 18742 18651 18619 18663 18635 18582 18473 18443 18455 18247 18081 18014 17919 17730 17635 17549 17397 17419 17387 17255 17065 16935 16700 16655 16542 16323 16221 15947 15796 15669 15560 15491 15395 15406 15357 15235 15208 15153 15167 15009 14933 14986 15007 14993 15076 14899 14830 14785 14730 14609 14394 14323 14287 14115 13885 13735 13685 13519 13423 13416 13374 13491 13560 13463 13472 13545 13600 13671 13786 13804 13848 13882 13918 14023 14088 14170 14127 13954 13810 13810 13754 13801 13751 13786 13829 13940 14060 14235 14359 14238 14188 14222 14369 14292 14239 14148 14089 14109 14093 14191 14255 14319 14441 14429 14313 14217 14187 14223 14254 14321 14388 14383 14429 14630 14709 14812 14846 15060 15170 15397 15592 15738 15877 16062 16287 16533 16764 17020 17359 17492 17631 17735 17783 17939 18019 18126 18318 18364 18468 18499 18643 18695 18736 18695 18609 18654 18808 18902 18970 19034 19082 19250 19475 19596 19688 19666 19635 19639 19708 19707 19614 19802 19974 20048 20155 20213 20359 20510 20622 20865 21101 21270 21341 21507 21676 22017 22250 22142 22117 22004 22003 21938 21835 21813 21680 21726 21776 21751 21732 21831 21968 22086 22234 22165 22160 22043 21965 21795 21722 21652 21609 21503 21338 21348 21274 21209 21047 20926 20683
19895 19921 19962 19873 19905 19808 19850 19675 19666 19692 19870 19996 20101 20047 20066 20105 20227 20345 20417 20410 20350 20252 20168 20107 20013 19981 19933 19959 20023 20043 20119 20112 20118 20109 20059 20017 20001 19987 19935 19780 19812 19685 19544 19375 19287 19153 19009 18855 18693 18617 18662 18580 18569 18554 18459 18362 18402 18260 18033 17931 17774 17653 17608 17521 17407 17382 17345 17212 17166 16931 16743 16732 16589 16431 16210 15966 15756 15602 15506 15378 15238 15281 15201 15137 15144 15117 14979 14846 14708 14860 14943 14895 14978 14820 14725 14703 14765 14532 14391 14323 14294 14136 13888 13809 13707 13520 13427 13423 13436 13509 13532 13475 13423 13515 13623 13660 13736 13771 13867 14013 13991 13992 13928 13971 13991 13903 13824 13756 13719 13699 13672 13703 13733 13924 14027 14113 14187 14200 14252 14248 14369 14370 14313 14240 14081 14045 14045 14152 14271 14278 14446 14361 14274 14239 14232 14251 14210 14203 14325 14352 14291 14574 14719 14770 14858 14968 15079 15278 15576 15702 15897 16193 16407 16631 16813 17122 17361 17480 17628 17799 17841 17922 18036 18162 18333 18368 18507 18586 18725 18734 18750 18743 18612 18696 18875 18928 19019 19083 19127 19337 19460 19647 19705 19719 19670 19683 19750 19711 19695 19761 19967 20083 20177 20316 20430 20581 20706 20915 21101 21275 21421 21668 21783 22052 22273 22257 22154 22138 22107 21972 21820 21817 21690 21816 21790 21832 21794 21928 22152 22274 22293 22322 22175 22095 21952 21838 21762 21804 21755 21631 21495 21396 21310 21295 21131 20888 20712
19746 19854 19897 19922 19822 19813 19817 19655 19600 19692 19912 20027 20167 20152 20140 20191 20318 20319 20405 20400 20386 20312 20140 20066 19964 19879 19798 19864 19863 20036 20099 20115 20089 20128 20112 20020 20017 19968 19879 19745 19727 19634 19495 19425 19306 19120 19019 18809 18716 18696 18677 18643 18546 18465 18407 18328 18271 18131 18075 17862 17741 17626 17476 17504 17458 17404 17417 17305 17203 17040 16868 16772 16693 16370 16168 15957 15718 15577 15442 15330 15188 15199 15102 15085 15092 15036 14913 14747 14543 14596 14753 14768 14857 14836 14701 14668 14689 14472 14333 14264 14189 14028 13881 13760 13624 13578 13536 13482 13387 13388 13411 13489 13483 13512 13628 13717 13709 13836 13958 14063 14059 14007 13885 13941 13939 13863 13740 13678 13671 13657 13640 13625 13645 13805 13993 14072 14116 14192 14213 14318 14318 14380 14326 14227 14180 14081 14111 14197 14235 14231 14353 14354 14350 14275 14273 14176 14167 14192 14196 14278 14248 14454 14644 14804 14839 14993 15058 15307 15482 15645 15833 16168 16403 16630 16906 17067 17345 17454 17633 17790 17928 18042 18149 18310 18373 18458 18647 18671 18786 18782 18865 18819 18711 18872 18913 18938 18943 19104 19253 19340 19537 19619 19792 19817 19814 19720 19735 19690 19686 19800 19953 20077 20161 20309 20466 20536 20699 20828 21018 21218 21496 21720 21843 22072 22290 22225 22121 22099 22156 22034 21924 21794 21740 21848 21858 21875 21971 22133 22243 22352 22478 22430 22257 22141 22027 22010 21926 21851 21808 21810 21728 21550 21425 21310 21220 20947 20766
19831 19835 19946 19895 19860 19786 19758 19626 19633 19814 19970 20087 20237 20169 20216 20287 20300 20319 20312 20309 20213 20211 20155 20008 19893 19914 19784 19862 19933 20126 20154 20235 20327 20321 20232 20151 20110 20017 19909 19846 19808 19712 19461 19393 19294 19120 19048 18901 18777 18784 18718 18580 18513 18418 18286 18273 18169 18092 18057 17923 17776 17668 17513 17460 17328 17419 17364 17290 17148 17000 16890 16749 16614 16314 16068 15912 15702 15465 15377 15222 15095 15156 15068 15101 15029 14949 14931 14742 14500 14604 14663 14702 14747 14647 14632 14619 14596 14429 14298 14205 14124 13988 13929 13801 13607 13624 13502 13455 13352 13440 13465 13502 13482 13494 13656 13743 13695 13769 13857 13899 13890 13843 13830 13866 13820 13746 13780 13652 13614 13621 13680 13678 13617 13738 13883 13989 14003 14090 14199 14296 14272 14332 14362 14424 14372 14274 14174 14199 14307 14299 14450 14422 14399 14293 14273 14221 14225 14244 14218 14278 14248 14443 14550 14660 14799 14964 15069 15310 15552 15628 15859 16112 16431 16645 16931 17060 17201 17444 17557 17674 17955 17964 18061 18221 18317 18429 18583 18639 18849 18850 18748 18699 18692 18826 18917 18919 18985 19117 19240 19422 19516 19571 19794 19809 19839 19833 19806 19667 19692 19808 20014 20053 20160 20363 20491 20668 20819 20972 21067 21275 21540 21751 21910 22171 22358 22271 22184 22159 22174 22155 22061 21917 21792 21902 21942 21945 21964 22096 22215 22326 22519 22383 22233 22193 22086 22025 21972 21993 21918 21878 21742 21558 21521 21398 21186 20967 20882
20042 19960 19920 19979 19948 19839 19707 19659 19656 19831 19973 20031 20189 20206 20186 20221 20244 20182 20099 20144 20130 20072 20068 19937 19816 19884 19878 19949 20048 20199 20270 20409 20449 20450 20328 20168 20104 20002 20027 20018 19960 19791 19540 19412 19294 19077 18952 18887 18818 18787 18742 18674 18491 18315 18239 18215 18129 18126 18052 17885 17784 17759 17621 17506 17321 17412 17381 17235 17064 17020 16893 16788 16580 16356 16057 15856 15720 15446 15282 15175 15020 15021 15062 15032 14909 14824 14850 14682 14495 14547 14614 14652 14766 14593 14497 14470 14440 14258 14188 14074 14067 13958 13939 13767 13636 13602 13539 13463 13339 13377 13407 13367 13410 13467 13616 13733 13739 13842 13873 13852 13810 13700 13698 13636 13634 13732 13755 13642 13612 13657 13701 13594 13616 13704 13795 13818 13922 14046 14252 14287 14355 14424 14494 14519 14466 14386 14199 14192 14255 14314 14429 14357 14377 14329 14279 14276 14342 14313 14232 14286 14268 14400 14474 14568 14785 14947 15148 15285 15514 15641 15863 16170 16518 16708 16962 17083 17181 17363 17448 17611 17889 17928 18064 18097 18172 18418 18592 18686 18816 18822 18733 18747 18702 18811 18834 18884 19060 19218 19307 19422 19479 19614 19725 19754 19829 19758 19814 19694 19690 19885 19956 20133 20231 20354 20529 20640 20824 20996 21134 21436 21640 21822 21937 22254 22509 22375 22262 22319 22279 22165 22090 22078 21965 21969 21920 21990 22004 22062 22212 22338 22544 22324 22209 22145 22022 21955 21958 22019 22029 21947 21771 21643 21528 21394 21194 21089 20963
20134 20113 20048 20029 19980 19848 19706 19686 19655 19793 19910 20021 20047 20126 20067 20148 20262 20184 20033 20039 20126 20006 19993 19960 19849 19885 19809 20040 20138 20220 20333 20473 20579 20384 20245 20118 20104 20090 20078 20055 19940 19836 19659 19492 19451 19138 19011 18843 18772 18740 18695 18590 18435 18407 18255 18134 18076 18031 17981 17855 17690 17702 17653 17451 17324 17330 17288 17208 16981 16930 16764 16678 16500 16275 16101 15807 15705 15485 15237 15125 14982 14913 14898 14938 14773 14818 14844 14764 14629 14624 14710 14713 14743 14559 14406 14335 14383 14298 14215 14191 14090 13941 13945 13721 13623 13600 13572 13548 13410 13439 13533 13499 13422 13493 13704 13700 13734 13778 13690 13633 13666 13558 13635 13541 13521 13628 13654 13594 13619 13653 13605 13626 13560 13714 13718 13804 13901 14065 14216 14318 14464 14504 14560 14461 14467 14456 14383 14412 14397 14370 14459 14354 14348 14395 14346 14405 14378 14343 14365 14249 14236 14307 14443 14577 14879 15059 15158 15339 15656 15767 15948 16265 16561 16744 16841 17042 17119 17356 17454 17694 17918 18047 18092 18120 18242 18357 18444 18535 18732 18736 18701 18746 18842 18852 18932 18969 19055 19143 19268 19444 19529 19533 19641 19643 19768 19762 19741 19739 19692 19879 19991 20183 20224 20375 20642 20715 20882 21045 21247 21367 21573 21742 22065 22228 22470 22392 22342 22386 22456 22316 22133 22011 21925 22047 21998 22149 22133 22162 22250 22389 22548 22308 22248 22240 22159 22201 22188 22164 22147 22040 21836 21780 21682 21497 21320 21183 21010
20118 20172 20128 20013 19956 19880 19719 19755 19730 19741 19754 19916 19973 20003 20010 20113 20227 20101 20057 20063 20097 20051 20021 19906 19781 19784 19868 20050 20157 20270 20354 20457 20645 20461 20257 20091 20031 20097 20092 19995 20005 19830 19765 19680 19495 19258 19018 18893 18703 18598 18594 18502 18508 18389 18254 18111 18075 18077 17963 17736 17607 17555 17579 17461 17407 17294 17253 17094 17002 16782 16606 16520 16371 16165 16055 15821 15661 15515 15288 15179 14950 14909 14790 14809 14713 14793 14748 14741 14643 14655 14780 14754 14747 14545 14409 14326 14226 14199 14266 14137 14065 13939 13912 13791 13616 13634 13674 13537 13494 13470 13567 13528 13541 13619 13715 13761 13705 13608 13530 13451 13413 13481 13464 13523 13488 13500 13596 13599 13538 13570 13479 13573 13627 13676 13745 13763 13899 13953 14115 14258 14452 14465 14517 14499 14585 14540 14478 14527 14517 14514 14604 14495 14443 14463 14519 14529 14460 14463 14414 14282 14253 14344 14489 14645 14868 15060 15215 15501 15766 15874 16077 16364 16581 16688 16834 17033 17173 17403 17525 17765 17932 18093 18157 18198 18192 18233 18391 18519 18626 18641 18671 18776 18878 18902 18911 18894 19003 19135 19170 19308 19550 19583 19498 19619 19669 19676 19743 19729 19760 19908 19992 20197 20283 20468 20730 20870 20926 21085 21296 21397 21551 21753 22083 22312 22541 22548 22470 22468 22571 22427 22181 22111 21992 22089 22145 22244 22232 22207 22292 22400 22504 22355 22309 22235 22236 22338 22323 22313 22177 22088 21906 21861 21729 21528 21421 21319 21118
20151 20178 20145 20013 20067 19985 19803 19832 19801 19880 19897 19959 20019 20037 20029 19981 20023 19968 19955 20002 19944 19992 19948 19914 19760 19852 19984 20126 20204 20312 20371 20491 20636 20510 20290 20220 20112 20149 20108 20039 19979 19846 19777 19642 19540 19279 19021 18941 18774 18708 18740 18608 18471 18420 18260 18191 18058 17968 17930 17816 17666 17691 17619 17475 17317 17219 17242 17065 16906 16823 16649 16524 16440 16230 16026 15889 15729 15469 15263 15077 14959 14868 14863 14847 14792 14705 14634 14699 14639 14668 14663 14703 14669 14560 14408 14234 14077 14088 14135 14131 14034 13990 13797 13746 13564 13600 13689 13553 13465 13489 13552 13604 13635 13549 13567 13536 13616 13570 13485 13328 13312 13380 13360 13375 13396 13479 13454 13465 13417 13449 13480 13549 13654 13665 13788 13799 13962 14106 14223 14341 14417 14468 14468 14489 14577 14594 14487 14586 14598 14621 14553 14540 14445 14512 14533 14484 14539 14531 14411 14273 14260 14524 14653 14755 14912 15126 15349 15547 15711 15864 16057 16381 16617 16659 16892 17050 17211 17414 17609 17792 17927 18107 18184 18109 18092 18212 18417 18434 18581 18577 18662 18727 18904 18900 18909 18969 19022 19060 19185 19290 19483 19537 19532 19720 19823 19841 19865 19821 19827 19993 20223 20288 20463 20599 20860 20954 21158 21309 21495 21520 21638 22006 22294 22447 22595 22560 22533 22523 22642 22483 22352 22231 22236 22277 22329 22251 22272 22247 22338 22396 22614 22580 22523 22372 22282 22378 22287 22301 22225 22108 22040 21873 21782 21692 21508 21410 21388
20068 20066 20055 20081 20104 20040 19905 19877 19789 19903 19976 19959 20039 20029 19961 19938 19930 20016 19977 19917 19872 19837 19917 19888 19781 19872 20051 20231 20325 20473 20503 20565 20640 20534 20447 20377 20195 20165 20193 20138 20076 19955 19760 19581 19484 19277 19125 18946 18784 18811 18805 18620 18535 18485 18331 18189 18068 17955 17912 17884 17792 17693 17570 17347 17236 17225 17217 17105 16901 16823 16710 16520 16429 16140 15972 15857 15706 15567 15320 15112 15003 14943 14963 14940 14915 14807 14606 14634 14537 14549 14484 14576 14561 14464 14343 14148 13939 13976 14124 14084 14052 13945 13754 13640 13623 13567 13623 13539 13377 13447 13626 13640 13605 13466 13453 13426 13420 13356 13365 13298 13218 13221 13310 13365 13386 13426 13385 13356 13294 13384 13446 13560 13707 13783 13913 13936 13974 14112 14224 14305 14371 14339 14420 14569 14628 14671 14597 14549 14581 14640 14608 14567 14487 14498 14451 14466 14580 14497 14358 14351 14388 14616 14727 14908 15038 15232 15392 15599 15737 15918 16099 16300 16536 16637 16862 17023 17180 17433 17589 17713 17924 18062 18096 18043 18040 18214 18357 18467 18528 18581 18688 18788 18976 18925 18997 19062 19092 19086 19137 19277 19385 19480 19615 19754 19886 19837 19892 19964 19999 20155 20378 20520 20623 20838 20933 21132 21272 21434 21570 21684 21854 22157 22424 22582 22687 22610 22626 22708 22752 22535 22428 22383 22389 22441 22447 22368 22357 22328 22390 22439 22599 22625 22632 22567 22440 22428 22361 22338 22295 22115 22063 21968 21918 21852 21689 21676 21666
20155 20111 20171 20114 20190 20084 19968 20017 19947 20030 20029 20006 20000 20019 19989 20005 19934 19882 19887 19888 19738 19852 19907 19952 19842 20069 20287 20301 20443 20609 20608 20708 20727 20631 20471 20367 20243 20255 20246 20089 20056 20018 19820 19626 19481 19345 19221 19120 18908 18804 18863 18793 18698 18499 18361 18275 18048 17994 17892 17857 17775 17594 17440 17348 17226 17235 17179 17142 16999 16838 16715 16544 16383 16205 16022 15845 15615 15459 15202 15001 14895 14894 14943 14885 14874 14822 14566 14633 14564 14535 14481 14523 14554 14423 14244 14063 13851 13888 13948 13942 13937 13941 13843 13779 13795 13697 13610 13441 13402 13529 13611 13569 13540 13485 13437 13379 13354 13244 13276 13263 13306 13314 13342 13296 13292 13219 13222 13214 13231 13311 13355 13570 13662 13836 13961 14016 14055 14159 14254 14394 14413 14425 14569 14640 14688 14645 14700 14708 14607 14565 14546 14495 14395 14407 14415 14419 14578 14485 14470 14445 14569 14758 14866 15009 15142 15275 15400 15618 15706 16021 16186 16299 16492 16606 16824 16959 17113 17385 17507 17591 17797 17975 18067 18035 18059 18136 18351 18306 18421 18466 18554 18801 18924 18995 19070 19093 19040 19087 19122 19267 19306 19391 19533 19687 19844 19976 20018 20018 20063 20170 20431 20561 20698 20954 21035 21268 21455 21556 21699 21877 22117 22282 22482 22590 22763 22794 22801 22783 22702 22628 22594 22471 22456 22438 22470 22524 22466 22494 22523 22621 22622 22703 22671 22571 22606 22593 22473 22444 22442 22288 22245 22139 22143 22019 21969 21911 21795
20224 20284 20361 20270 20274 20170 20081 20051 20012 19997 20076 20069 20023 19964 19921 19934 19830 19904 19885 19865 19725 19863 19905 19955 20017 20151 20411 20497 20610 20681 20760 20750 20756 20608 20547 20406 20172 20228 20186 20122 20067 20010 19827 19674 19548 19420 19308 19179 18992 18846 18826 18790 18792 18635 18490 18271 18105 18015 17824 17781 17794 17574 17421 17314 17268 17283 17221 17144 16980 16936 16780 16609 16453 16232 16072 15742 15518 15344 15112 15006 14901 14942 14932 14903 14876 14793 14653 14712 14656 14567 14492 14472 14422 14180 14031 13975 13885 13817 13816 13830 13810 13849 13843 13852 13856 13651 13569 13464 13416 13445 13542 13542 13459 13363 13339 13260 13204 13160 13172 13247 13276 13248 13300 13256 13168 13131 13141 13152 13047 13199 13263 13468 13602 13723 13901 14037 14106 14247 14406 14438 14465 14610 14630 14702 14839 14713 14707 14730 14710 14529 14459 14397 14320 14433 14454 14464 14524 14574 14508 14623 14694 14755 14938 15113 15171 15244 15354 15629 15782 16062 16270 16403 16530 16686 16828 16911 17055 17258 17455 17597 17675 17778 17916 18022 18081 18107 18222 18238 18326 18378 18549 18813 18998 19042 19072 19017 19026 19100 19166 19253 19338 19421 19561 19722 19896 19988 20041 19971 20011 20219 20508 20707 20831 21078 21250 21382 21599 21678 21872 22039 22259 22410 22574 22714 22789 22835 22876 22848 22762 22801 22832 22693 22648 22581 22605 22617 22616 22697 22730 22668 22660 22699 22730 22671 22672 22668 22590 22588 22665 22607 22487 22418 22305 22203 22151 22078 21980
20246 20315 20314 20251 20298 20234 20045 20100 20197 20228 20244 20252 20205 20222 20156 20057 19963 19999 19998 19914 19923 19872 19914 20069 20075 20250 20449 20501 20583 20657 20577 20693 20703 20591 20502 20368 20196 20199 20187 20133 20011 19906 19700 19658 19582 19385 19241 19005 18866 18879 18789 18687 18651 18439 18302 18116 18060 17875 17757 17641 17635 17540 17397 17290 17220 17249 17141 17116 16960 16876 16723 16555 16445 16204 16113 15840 15549 15432 15250 15010 14871 14792 14779 14814 14776 14670 14588 14551 14507 14510 14409 14462 14474 14195 14071 13911 13790 13861 13879 13770 13772 13866 13899 13945 13961 13885 13745 13644 13522 13622 13687 13589 13584 13582 13505 13405 13338 13257 13229 13273 13325 13260 13188 13181 13224 13189 13232 13179 13077 13240 13413 13561 13634 13805 13937 14082 14231 14323 14357 14392 14513 14642 14716 14728 14889 14764 14680 14760 14706 14616 14575 14522 14425 14508 14596 14554 14607 14727 14636 14715 14861 14866 15011 15094 15186 15286 15436 15737 15871 16139 16322 16456 16602 16836 16957 17024 17176 17368 17512 17601 17775 17858 17980 18045 18111 18247 18343 18456 18451 18587 18608 18884 19076 19111 19233 19231 19232 19229 19339 19373 19479 19551 19696 19787 19847 19976 20038 19987 20050 20380 20633 20800 21009 21179 21405 21567 21747 21819 22035 22203 22228 22489 22669 22797 22885 22880 22964 22944 22795 22809 22900 22856 22811 22777 22672 22692 22713 22734 22747 22685 22686 22646 22576 22714 22743 22650 22645 22637 22694 22605 22411 22439 22373 22269 22195 22247 22205
20298 20275 20374 20313 20209 20204 20090 20224 20292 20310 20296 20357 20442 20430 20356 20318 20177 20149 20140 20033 19999 20011 20038 20186 20248 20248 20377 20406 20498 20555 20518 20627 20730 20577 20460 20237 20112 20140 20085 20011 19921 19789 19624 19497 19499 19269 19146 18952 18851 18832 18784 18688 18594 18353 18120 18010 18011 17811 17737 17638 17579 17449 17309 17218 17139 17123 17113 17046 16884 16829 16729 16554 16390 16227 16083 15765 15569 15471 15306 14988 14779 14741 14692 14698 14768 14674 14555 14459 14486 14473 14434 14450 14424 14200 14047 13893 13797 13864 13829 13825 13803 13969 14018 13983 13984 13955 13906 13769 13655 13690 13711 13686 13714 13759 13695 13529 13490 13460 13372 13451 13420 13368 13197 13263 13204 13247 13218 13151 13164 13283 13445 13572 13596 13839 13983 14184 14279 14279 14312 14430 14529 14583 14678 14773 14904 14854 14728 14701 14800 14701 14728 14573 14424 14485 14635 14763 14802 14844 14783 14804 14951 14955 15030 15126 15303 15491 15564 15854 16028 16198 16449 16561 16778 16893 16983 17123 17254 17373 17522 17620 17792 17889 17934 17994 18179 18270 18487 18582 18579 18662 18753 19009 19173 19270 19309 19348 19399 19490 19560 19647 19629 19660 19722 19788 19845 19921 19964 20137 20194 20414 20740 20986 21228 21477 21647 21749 21976 22034 22210 22274 22323 22543 22659 22801 22896 22887 22960 22986 22951 22998 23095 23107 23026 22938 22856 22765 22697 22796 22804 22686 22615 22613 22520 22614 22729 22727 22735 22717 22598 22537 22408 22429 22433 22427 22308 22288 22309
20301 20332 20359 20308 20201 20184 20220 20330 20433 20407 20399 20505 20573 20514 20441 20400 20356 20271 20233 20263 20178 20201 20226 20289 20273 20352 20399 20439 20533 20507 20505 20578 20653 20542 20325 20141 19953 19972 19988 20002 19896 19719 19535 19504 19457 19343 19178 19058 18898 18721 18692 18551 18434 18220 17983 17874 17849 17662 17638 17527 17525 17420 17339 17218 17081 16949 16864 16933 16840 16718 16606 16402 16293 16158 15979 15784 15627 15413 15285 15024 14837 14772 14633 14719 14669 14625 14573 14553 14494 14521 14442 14497 14548 14292 14156 13978 13796 13872 13862 13822 13800 13957 14024 14138 14183 14072 13953 13950 13861 13900 13802 13758 13747 13729 13714 13557 13557 13488 13521 13466 13377 13367 13245 13210 13189 13198 13224 13192 13171 13325 13415 13547 13722 13800 13932 14203 14354 14310 14241 14363 14442 14554 14618 14666 14841 14863 14756 14761 14784 14696 14708 14601 14560 14573 14679 14837 14857 14915 14849 14911 15025 15081 15156 15354 15482 15637 15677 15882 16077 16243 16487 16680 16901 16940 17067 17225 17440 17461 17530 17589 17813 17854 17874 17969 18197 18392 18553 18755 18866 18873 18955 19069 19190 19357 19415 19468 19585 19672 19734 19671 19681 19752 19866 19919 19880 20044 20093 20230 20297 20506 20882 21112 21331 21537 21693 21960 22188 22292 22384 22446 22439 22624 22729 22914 23021 23023 23075 23101 22982 23049 23058 23080 23132 23051 22989 22887 22862 22797 22828 22652 22562 22537 22491 22555 22613 22668 22598 22591 22489 22505 22422 22391 22435 22454 22373 22373 22409
20288 20308 20234 20199 20289 20305 20268 20381 20455 20569 20577 20577 20696 20626 20629 20546 20444 20465 20370 20464 20465 20461 20494 20507 20414 20432 20443 20464 20541 20525 20513 20515 20588 20388 20229 20084 19896 19955 19935 19882 19792 19719 19526 19457 19463 19292 19245 18994 18840 18721 18600 18457 18253 18017 17881 17770 17756 17590 17534 17497 17363 17288 17288 17116 17002 16838 16741 16739 16700 16571 16477 16289 16088 16046 15915 15803 15709 15520 15325 15000 14770 14715 14689 14716 14673 14598 14565 14607 14550 14494 14551 14590 14553 14365 14245 14047 13855 13873 13954 13896 13881 13951 14082 14192 14309 14240 14129 14060 14041 14025 13908 13847 13779 13757 13731 13630 13612 13592 13631 13528 13438 13375 13323 13329 13298 13303 13213 13286 13303 13346 13459 13587 13811 13882 13975 14102 14309 14228 14254 14300 14370 14375 14504 14688 14854 14875 14890 14775 14704 14666 14722 14660 14691 14717 14815 14882 14896 14858 14945 15027 15172 15229 15391 15478 15634 15668 15819 16036 16138 16367 16585 16807 17042 17127 17213 17376 17576 17525 17578 17596 17726 17770 17893 18008 18236 18500 18640 18856 19052 19066 19069 19172 19311 19392 19404 19547 19723 19839 19888 19818 19857 19941 19988 19959 19972 20066 20105 20157 20323 20582 20930 21264 21482 21616 21830 22032 22309 22389 22482 22495 22546 22629 22812 22953 23052 23078 23154 23189 23125 23095 23063 23143 23166 23085 23041 22961 22928 22884 22735 22621 22468 22433 22389 22467 22567 22588 22551 22516 22479 22458 22476 22418 22455 22361 22392 22522 22559
20497 20463 20415 20389 20468 20419 20416 20535 20569 20690 20657 20736 20760 20743 20634 20489 20446 20443 20503 20427 20438 20443 20455 20556 20557 20579 20520 20483 20546 20436 20407 20384 20348 20269 20106 20033 19871 19779 19763 19714 19589 19536 19425 19365 19265 19256 19142 18970 18798 18743 18610 18411 18239 18050 17892 17823 17804 17615 17608 17451 17293 17202 17241 17153 17002 16811 16660 16594 16613 16481 16462 16218 16089 16019 15915 15769 15598 15356 15136 14887 14664 14723 14686 14625 14698 14633 14551 14544 14582 14564 14483 14461 14508 14407 14350 14137 13897 13975 13980 13998 13972 13978 14025 14082 14241 14175 14102 13961 13927 13880 13814 13785 13782 13775 13685 13617 13628 13547 13570 13471 13372 13349 13324 13309 13277 13279 13172 13293 13348 13405 13464 13625 13825 13912 14090 14222 14341 14251 14172 14239 14418 14531 14621 14820 14940 14878 14830 14804 14639 14778 14923 14929 14935 14972 15032 15054 15039 15101 15122 15124 15225 15381 15623 15636 15709 15872 16099 16246 16354 16616 16808 16989 17140 17251 17339 17437 17591 17534 17599 17648 17789 17964 18080 18101 18278 18637 18857 18943 19190 19261 19228 19359 19355 19464 19547 19672 19808 19919 19915 19848 19888 20003 20143 20094 20172 20216 20264 20330 20382 20633 21004 21271 21642 21713 21903 22180 22330 22451 22536 22662 22697 22823 22896 23004 23111 23139 23113 23129 23160 23075 23117 23174 23185 23080 23022 22949 22872 22744 22685 22581 22378 22383 22472 22516 22579 22690 22649 22532 22450 22394 22447 22463 22507 22533 22506 22511 22568
20605 20558 20614 20618 20672 20598 20588 20700 20771 20750 20844 20877 20896 20736 20601 20491 20510 20587 20592 20451 20371 20427 20476 20581 20630 20579 20477 20477 20458 20447 20319 20305 20179 20016 19963 19821 19773 19776 19700 19528 19361 19315 19215 19076 19037 19084 19052 18901 18756 18660 18529 18315 18220 17993 17841 17749 17735 17619 17579 17444 17249 17190 17203 17102 16924 16692 16585 16576 16557 16421 16345 16133 16038 15962 15893 15698 15513 15287 15016 14787 14648 14575 14599 14619 14730 14653 14642 14586 14593 14547 14416 14513 14592 14526 14362 14202 14011 13982 13973 14010 14028 14035 14070 14117 14267 14223 14090 13985 13870 13786 13821 13804 13780 13722 13761 13631 13583 13548 13472 13274 13193 13272 13241 13297 13256 13193 13197 13303 13381 13408 13526 13662 13795 13904 14100 14143 14272 14186 14177 14291 14369 14616 14749 14898 15020 14967 14852 14790 14684 14877 15000 15066 15070 15052 15128 15114 15220 15240 15207 15251 15282 15464 15738 15865 15906 16127 16268 16410 16591 16796 16977 17130 17358 17453 17490 17620 17629 17617 17725 17768 17838 18073 18194 18256 18440 18684 18950 19118 19211 19337 19467 19441 19482 19566 19777 19918 19937 20005 19990 19986 19966 20085 20184 20185 20308 20453 20501 20527 20514 20777 21028 21360 21715 21868 22050 22222 22372 22497 22709 22794 22801 22873 23029 22987 23068 23108 23112 23111 23210 23160 23077 23020 23082 23070 22947 22841 22721 22741 22713 22608 22394 22482 22532 22652 22717 22711 22706 22595 22473 22435 22499 22487 22514 22525 22613 22658 22579
20718 20705 20733 20704 20779 20744 20739 20795 20919 20845 20850 20857 20926 20753 20671 20598 20599 20563 20638 20524 20400 20504 20551 20625 20647 20500 20394 20349 20348 20222 20254 20175 20033 19923 19877 19704 19703 19599 19513 19419 19196 19107 19113 18979 18872 18869 18943 18818 18598 18516 18366 18320 18251 18048 17865 17784 17714 17524 17446 17311 17226 17186 17125 17015 16876 16634 16488 16506 16423 16330 16369 16188 16044 15928 15843 15678 15524 15235 15065 14829 14685 14629 14631 14682 14752 14668 14526 14553 14538 14407 14341 14439 14521 14461 14363 14192 14113 14094 14058 14047 14152 14119 14209 14258 14354 14214 14142 13966 13960 13838 13777 13747 13773 13798 13785 13683 13531 13444 13376 13206 13143 13173 13184 13216 13208 13277 13290 13326 13331 13383 13533 13681 13809 13895 14051 14168 14201 14221 14200 14285 14490 14702 14758 14872 14976 14990 15035 14861 14818 14954 15147 15202 15118 15198 15332 15298 15341 15378 15488 15452 15466 15647 15949 16032 16156 16316 16395 16544 16735 16873 17093 17268 17390 17471 17584 17672 17767 17819 17824 17920 17974 18088 18214 18402 18561 18716 18953 19171 19328 19467 19509 19593 19703 19818 19845 20007 20044 20088 20059 20114 20067 20138 20236 20311 20413 20570 20600 20689 20671 20958 21129 21390 21796 21971 22179 22299 22499 22603 22726 22735 22796 22952 23034 23055 23160 23180 23192 23159 23252 23182 23163 23113 23099 23125 23011 22890 22731 22755 22686 22629 22465 22631 22669 22727 22738 22773 22689 22614 22593 22547 22578 22568 22646 22593 22727 22678 22619
20717 20760 20771 20863 20896 20873 20968 20971 21017 20909 20915 20973 21049 20880 20796 20740 20716 20647 20653 20613 20509 20557 20674 20620 20668 20543 20295 20262 20151 20068 20086 20061 20007 19880 19757 19655 19597 19421 19334 19254 19079 18948 18905 18751 18714 18678 18737 18675 18568 18403 18312 18337 18271 18007 17863 17697 17612 17542 17441 17324 17157 17032 17004 16937 16765 16584 16473 16499 16414 16309 16298 16178 16077 15974 15814 15744 15554 15313 15056 14884 14638 14628 14733 14747 14670 14592 14468 14490 14494 14460 14394 14363 14401 14266 14245 14206 14295 14215 14230 14215 14213 14238 14321 14292 14373 14167 14087 13953 13931 13836 13779 13794 13794 13713 13703 13661 13595 13553 13390 13225 13101 13152 13236 13179 13168 13183 13317 13349 13263 13453 13586 13714 13897 13951 14103 14035 14075 14205 14287 14405 14587 14719 14728 14816 15027 15015 15093 14960 14908 15033 15182 15289 15295 15410 15484 15478 15583 15551 15645 15636 15546 15812 16067 16182 16357 16436 16634 16670 16834 16984 17207 17344 17486 17541 17667 17733 17815 17963 17994 18013 18082 18203 18339 18523 18781 18873 19046 19246 19539 19631 19613 19688 19827 19941 20042 20015 20056 20111 20185 20121 20138 20212 20302 20403 20533 20673 20796 20868 20868 21044 21190 21486 21760 21992 22213 22401 22543 22640 22811 22783 22856 22968 23003 23162 23245 23233 23288 23304 23408 23303 23295 23257 23187 23111 23006 22870 22737 22757 22740 22681 22530 22669 22747 22767 22752 22717 22587 22566 22631 22582 22634 22618 22719 22717 22719 22745 22686
20820 20882 20932 20995 20960 21030 21050 20988 20996 20981 20978 20950 21029 20846 20779 20753 20790 20788 20717 20702 20584 20683 20667 20652 20701 20595 20413 20361 20170 20167 20043 19893 19867 19738 19736 19645 19473 19343 19244 19075 18953 18896 18779 18672 18683 18659 18665 18625 18621 18470 18298 18250 18139 18010 17896 17719 17598 17481 17350 17218 17091 16964 16878 16716 16627 16510 16341 16246 16208 16183 16204 16109 15946 15882 15666 15526 15463 15248 15042 14832 14681 14790 14845 14846 14753 14778 14680 14674 14711 14527 14428 14415 14423 14354 14310 14309 14269 14297 14350 14287 14241 14329 14333 14377 14386 14235 14142 14035 13938 13877 13733 13702 13669 13774 13773 13775 13665 13626 13480 13367 13260 13274 13373 13376 13357 13341 13384 13359 13369 13554 13637 13723 13813 13895 14087 14111 14155 14258 14444 14493 14636 14669 14700 14847 14865 14893 14965 14805 14765 14852 15021 15118 15238 15384 15494 15421 15527 15607 15588 15682 15629 15853 16073 16253 16452 16472 16567 16757 16920 17013 17158 17278 17421 17559 17600 17782 17895 17948 18014 18111 18192 18345 18398 18575 18858 19040 19092 19358 19656 19807 19807 19864 20029 20075 20128 20189 20211 20339 20417 20382 20334 20470 20528 20626 20806 20879 21034 21053 21170 21246 21395 21641 21819 22047 22182 22336 22477 22605 22765 22834 22893 22967 23053 23092 23183 23231 23346 23331 23327 23292 23342 23200 23135 23016 22869 22763 22677 22710 22661 22736 22644 22709 22770 22801 22730 22740 22695 22653 22698 22732 22750 22789 22824 22768 22780 22748 22749
20854 20985 21059 20988 21026 21039 21015 21094 21057 21016 21026 21035 21001 20919 20891 20912 20896 20849 20732 20689 20772 20749 20725 20635 20637 20491 20406 20347 20303 20150 20008 19846 19802 19696 19676 19545 19303 19279 19217 19094 18866 18799 18750 18704 18594 18664 18683 18594 18553 18403 18184 18115 18044 17941 17832 17714 17524 17316 17222 17041 16931 16850 16738 16550 16450 16356 16138 16119 16071 16084 16031 15953 15833 15706 15499 15460 15398 15179 15053 14901 14825 14861 14965 14965 14922 14937 14875 14860 14811 14723 14591 14591 14523 14429 14375 14320 14371 14411 14389 14371 14350 14314 14368 14452 14456 14320 14217 14096 13956 13831 13690 13709 13647 13698 13779 13760 13693 13604 13571 13487 13414 13495 13567 13540 13518 13551 13508 13424 13365 13505 13612 13662 13726 13872 13957 14121 14211 14338 14481 14566 14568 14566 14669 14773 14765 14721 14762 14712 14683 14784 14898 14982 15141 15338 15421 15388 15429 15523 15620 15687 15635 15806 16081 16224 16465 16514 16626 16695 16892 17043 17104 17256 17401 17573 17646 17706 17871 17941 18023 18178 18269 18465 18547 18727 18978 19159 19222 19477 19805 19993 20101 20166 20165 20181 20205 20285 20415 20452 20589 20644 20613 20636 20667 20872 21017 21122 21321 21383 21427 21534 21560 21778 21902 22029 22201 22291 22308 22569 22709 22754 22805 22922 23032 23067 23181 23269 23356 23348 23260 23212 23273 23167 23066 22961 22816 22796 22745 22675 22683 22764 22737 22710 22785 22798 22836 22823 22788 22717 22713 22794 22837 22963 22979 22969 22926 22915 22878
20935 21031 21119 21190 21123 21109 21110 21078 21059 21019 20975 20952 21026 20979 20972 20912 20940 20978 20857 20899 20859 20932 20910 20791 20750 20558 20536 20421 20294 20200 19992 19838 19748 19647 19562 19430 19146 19112 19132 19025 18820 18814 18720 18719 18628 18661 18645 18611 18536 18387 18067 18037 17842 17829 17656 17549 17425 17282 17231 17041 16987 16806 16744 16505 16365 16243 16064 15991 15899 15925 15935 15771 15682 15569 15474 15373 15396 15215 15121 14992 14800 14815 14986 15032 15011 15023 14962 14890 14869 14696 14593 14617 14518 14466 14416 14408 14417 14423 14278 14267 14303 14280 14309 14301 14422 14333 14171 14093 13922 13780 13691 13640 13641 13683 13651 13655 13777 13768 13675 13665 13542 13604 13661 13708 13674 13622 13547 13494 13445 13525 13520 13654 13790 13811 13967 14121 14233 14321 14457 14508 14584 14620 14770 14750 14752 14670 14671 14716 14726 14731 14900 14952 15096 15288 15362 15438 15416 15556 15612 15630 15708 15956 16157 16368 16557 16615 16715 16890 17076 17160 17177 17355 17452 17659 17696 17821 17997 18037 18063 18207 18321 18482 18633 18755 18974 19171 19374 19733 20005 20136 20263 20341 20312 20238 20296 20385 20511 20612 20763 20828 20778 20789 20923 21119 21143 21295 21508 21607 21644 21593 21653 21800 21968 22068 22220 22315 22328 22509 22578 22610 22744 22904 22956 22982 23109 23164 23360 23360 23331 23250 23286 23237 23092 23030 22857 22795 22769 22767 22698 22732 22799 22789 22883 22955 22902 22945 22870 22793 22846 22885 23021 22971 22969 22984 23105 23045 23060
21107 21138 21201 21285 21301 21343 21328 21253 21177 21068 20966 20961 20964 20993 20983 21012 21100 21037 20986 20943 21017 20992 21009 20835 20757 20641 20594 20487 20373 20135 19999 19874 19717 19548 19360 19248 19095 19071 18944 18817 18701 18729 18758 18740 18666 18628 18594 18529 18474 18306 18075 17914 17700 17693 17575 17501 17349 17228 17120 17087 16931 16875 16702 16584 16380 16146 16015 15918 15818 15820 15714 15632 15482 15400 15382 15389 15424 15359 15201 15042 14813 14837 14923 14988 15090 15095 15118 14984 14966 14819 14685 14566 14572 14522 14535 14483 14426 14352 14256 14250 14301 14327 14238 14237 14342 14260 14130 14019 13922 13885 13800 13693 13583 13571 13605 13616 13754 13844 13824 13727 13749 13716 13792 13787 13776 13621 13562 13554 13485 13570 13540 13623 13797 13813 13955 14063 14171 14271 14384 14504 14621 14667 14768 14743 14722 14723 14658 14676 14676 14769 14802 14885 15031 15234 15317 15359 15412 15423 15525 15566 15682 15916 16121 16379 16579 16778 16925 17029 17153 17172 17284 17399 17561 17713 17851 17907 18052 18137 18195 18247 18288 18502 18610 18815 19092 19284 19496 19845 20092 20189 20314 20435 20483 20420 20468 20491 20565 20727 20811 20905 20904 21026 21180 21307 21371 21465 21658 21695 21793 21772 21840 22009 22124 22149 22292 22289 22295 22427 22487 22569 22636 22743 22777 22867 22950 23047 23249 23308 23306 23335 23257 23228 23200 23019 22945 22842 22785 22736 22709 22823 22861 22854 22955 23013 23042 22996 22898 22851 22914 22974 23091 23121 23070 23134 23255 23312 23253
21046 21148 21174 21189 21202 21269 21210 21204 21047 20970 20965 21002 20974 21032 21058 21167 21266 21200 21102 21102 21063 21009 21039 20985 20847 20657 20518 20418 20279 20121 19989 19895 19729 19497 19391 19248 19085 18987 18897 18788 18655 18661 18779 18743 18687 18648 18527 18421 18336 18210 17978 17859 17649 17686 17523 17412 17285 17107 17095 16911 16825 16669 16474 16279 16087 15980 15821 15776 15621 15564 15597 15449 15367 15372 15339 15328 15249 15245 15160 14924 14762 14792 14959 15012 15044 15027 15059 15074 15063 14943 14761 14675 14571 14514 14543 14494 14314 14336 14259 14307 14236 14299 14212 14267 14294 14309 14143 14117 14043 13895 13797 13746 13602 13682 13684 13724 13818 13891 13935 13926 13864 13875 13909 13814 13788 13675 13629 13573 13586 13681 13681 13797 13902 13943 14103 14284 14392 14390 14493 14518 14637 14596 14677 14716 14784 14732 14703 14748 14634 14733 14867 14960 15135 15281 15359 15369 15443 15516 15728 15769 15801 16007 16200 16408 16667 16839 16932 17039 17253 17241 17321 17506 17615 17761 17963 17910 18043 18152 18299 18424 18482 18673 18833 18987 19190 19448 19634 19872 20184 20320 20404 20513 20608 20577 20711 20764 20794 20871 21002 21033 21063 21210 21374 21500 21646 21699 21882 21915 22072 22024 22083 22095 22161 22205 22297 22309 22346 22446 22487 22496 22635 22780 22814 22824 22977 23103 23239 23152 23209 23161 23233 23254 23250 23126 22978 22917 22907 22871 22768 22813 22784 22838 23055 23059 23118 23047 23081 23108 23086 23157 23310 23266 23268 23253 23307 23338 23318
21061 21061 21147 21130 21213 21166 21158 21064 20912 20941 20895 20973 20991 21101 21164 21222 21339 21272 21172 21186 21139 21123 21129 21058 20942 20693 20528 20388 20200 20057 19991 19845 19691 19547 19335 19188 19028 19028 18911 18727 18650 18639 18734 18709 18650 18530 18388 18366 18227 18033 17854 17765 17688 17634 17528 17403 17188 17035 16952 16827 16707 16580 16328 16085 15916 15843 15648 15526 15495 15400 15380 15399 15295 15287 15283 15291 15188 15168 15051 14917 14690 14780 14882 14923 14993 14964 14959 15000 15142 14946 14801 14719 14679 14612 14616 14485 14315 14392 14348 14317 14260 14295 14234 14209 14285 14297 14241 14139 14041 13937 13781 13697 13693 13701 13704 13743 13894 13982 14011 13936 13885 13980 13957 13957 13916 13833 13670 13685 13622 13670 13773 13895 14010 14181 14270 14416 14507 14586 14600 14596 14622 14615 14613 14783 14842 14831 14715 14744 14680 14712 14849 14981 15124 15273 15429 15464 15522 15636 15861 15823 15902 16089 16314 16590 16815 16953 17018 17148 17321 17401 17462 17591 17692 17766 17963 17942 18007 18125 18354 18550 18682 18819 18952 19145 19316 19636 19869 20008 20254 20371 20407 20577 20693 20802 20930 21042 21029 21083 21246 21288 21305 21372 21471 21636 21816 21944 22057 22132 22286 22324 22319 22277 22283 22286 22333 22355 22456 22423 22452 22531 22681 22725 22820 22883 22991 23053 23166 23083 23109 23118 23164 23233 23243 23172 23061 23007 23012 22907 22872 22807 22786 22869 23049 23137 23099 23104 23158 23260 23358 23462 23541 23527 23470 23431 23372 23402 23386
21072 21024 21064 21044 21134 21123 21080 20973 20871 20959 21006 21067 20996 21042 21138 21193 21363 21265 21309 21300 21223 21112 21051 21042 20955 20714 20596 20461 20236 20161 19977 19739 19587 19469 19293 19189 19094 18911 18834 18751 18627 18559 18652 18536 18555 18441 18297 18176 18078 17964 17869 17729 17544 17535 17470 17345 17217 17057 16990 16825 16668 16527 16258 15994 15770 15669 15534 15383 15349 15307 15196 15217 15133 15205 15209 15189 15169 15165 15073 14939 14698 14694 14775 14914 14997 14959 14914 14995 15179 15012 14907 14856 14717 14673 14507 14436 14400 14421 14324 14225 14134 14204 14184 14227 14324 14304 14259 14110 14050 14017 13833 13756 13652 13765 13833 13888 13987 14011 14023 13972 13855 13899 13974 13990 14020 13882 13779 13788 13667 13718 13884 14072 14153 14213 14374 14518 14652 14648 14654 14701 14633 14717 14649 14737 14896 14809 14806 14744 14779 14885 14918 15107 15208 15278 15442 15587 15652 15831 16023 15971 16059 16215 16443 16664 16810 16979 16983 17107 17259 17368 17555 17538 17648 17748 17861 17916 18000 18237 18352 18573 18786 18919 19098 19383 19582 19874 20016 20186 20387 20538 20581 20716 20903 21023 21117 21230 21235 21306 21465 21466 21449 21556 21711 21885 21988 22081 22239 22374 22426 22506 22498 22469 22515 22400 22353 22374 22443 22461 22473 22609 22662 22777 22955 23031 23097 23118 23087 23117 23109 23086 23164 23185 23217 23159 23033 23002 23101 23001 22898 22758 22763 22869 22985 22991 23109 23192 23310 23425 23430 23584 23703 23718 23696 23643 23567 23499 23448
21076 21075 21065 21036 21112 21037 21062 20971 20867 20959 21038 21058 20970 21009 21072 21212 21352 21297 21341 21234 21193 21166 21099 21009 20935 20798 20657 20416 20195 20126 19936 19777 19610 19511 19365 19257 19057 18892 18779 18592 18488 18485 18474 18479 18448 18296 18242 18075 18011 17928 17770 17664 17464 17415 17342 17264 17250 17084 16917 16818 16650 16425 16292 16022 15687 15558 15410 15355 15206 15102 15043 15007 15086 15136 15127 15144 15159 15035 14988 14836 14769 14775 14766 14902 14996 14904 14932 15050 15105 14992 14998 14891 14681 14623 14522 14448 14427 14316 14190 14099 14096 14149 14238 14255 14266 14291 14270 14173 14161 14003 13887 13795 13635 13798 13843 13857 13959 13979 14011 13925 13917 13966 14088 14045 14088 13881 13803 13803 13760 13822 13977 14141 14239 14334 14499 14629 14715 14691 14633 14680 14770 14759 14710 14761 14853 14905 14831 14847 14923 15018 15085 15099 15222 15388 15447 15598 15784 15959 16069 16089 16135 16339 16504 16760 16890 16940 17041 17227 17293 17365 17542 17556 17609 17757 17848 18004 18076 18263 18378 18568 18831 19045 19321 19525 19764 20019 20253 20412 20550 20679 20826 21007 21101 21211 21261 21311 21434 21481 21632 21647 21613 21816 21930 22070 22237 22386 22509 22553 22613 22683 22649 22653 22690 22591 22486 22495 22436 22464 22487 22554 22695 22798 22964 23068 23082 23014 23054 23051 23030 22991 23074 23225 23250 23202 23128 23109 23160 22969 22859 22823 22795 22832 22854 22898 23009 23166 23413 23558 23608 23750 23824 23819 23857 23728 23711 23645 23627
21087 21103 21113 21052 21079 21012 21084 20843 20770 20770 20877 20925 20824 20958 21072 21155 21269 21186 21153 21097 21124 21016 20949 20897 20834 20631 20418 20299 20071 19976 19923 19840 19684 19529 19340 19158 18970 18850 18673 18595 18473 18380 18363 18316 18294 18137 18106 18021 17907 17804 17644 17631 17416 17426 17318 17226 17229 17172 17005 16808 16620 16457 16309 16026 15743 15571 15384 15374 15210 15148 15003 15013 14985 15055 15011 15050 15048 15004 14962 14835 14830 14842 14862 14977 14998 14921 14943 14949 14958 14857 14835 14759 14548 14526 14439 14339 14299 14222 14156 14121 14052 14105 14178 14202 14147 14185 14187 14155 14068 14005 13877 13809 13663 13739 13833 13858 13884 13835 13852 13864 13904 13930 14015 13993 13971 13897 13789 13683 13617 13786 13854 13941 14040 14110 14276 14465 14537 14537 14504 14653 14657 14657 14676 14652 14724 14833 14771 14868 15017 15110 15189 15276 15340 15501 15496 15695 15944 15986 16136 16165 16227 16476 16621 16726 16871 17028 17132 17257 17248 17452 17583 17585 17643 17735 17840 17958 18038 18159 18293 18593 18813 18982 19171 19428 19585 19916 20101 20330 20496 20651 20792 20843 21035 21118 21150 21301 21395 21392 21524 21497 21383 21574 21688 21839 21987 22103 22290 22334 22307 22378 22460 22502 22519 22482 22453 22392 22362 22434 22408 22585 22646 22796 22953 23047 22960 22913 22951 22992 23031 23036 22958 23059 23088 23081 23088 23091 23252 23133 22957 22942 22798 22921 22856 22974 23055 23230 23418 23477 23557 23647 23868 23808 23903 23814 23755 23654 23593
21164 21123 21076 21036 21121 21046 20985 20779 20698 20726 20727 20728 20804 20949 20971 21028 21174 21144 21022 21021 20937 20871 20771 20771 20709 20547 20272 20160 20029 19935 19845 19733 19672 19514 19377 19229 18965 18758 18680 18574 18445 18365 18344 18270 18209 18014 17901 17860 17904 17704 17619 17571 17472 17378 17348 17293 17326 17182 17054 16912 16715 16579 16387 16075 15838 15679 15449 15303 15209 15127 15078 15074 15001 15020 15022 15057 14997 14998 15016 14937 14870 14952 14923 14897 14935 14878 14937 14941 14930 14783 14731 14588 14434 14356 14319 14305 14244 14192 14062 14085 14050 14089 14062 14062 13989 14077 14082 14053 14046 13976 13896 13787 13689 13781 13802 13762 13816 13736 13757 13805 13767 13862 13866 13848 13801 13802 13734 13600 13546 13622 13616 13701 13793 13933 14159 14235 14427 14430 14412 14538 14614 14561 14575 14610 14641 14775 14832 14918 15000 15177 15298 15446 15509 15565 15645 15887 16023 16142 16270 16328 16337 16571 16686 16832 16947 17037 17198 17192 17225 17418 17533 17621 17670 17757 17765 17878 17914 18122 18272 18464 18691 18819 19048 19214 19489 19782 20051 20234 20388 20464 20643 20747 20919 20990 21114 21229 21340 21372 21360 21310 21170 21338 21391 21580 21673 21783 21962 21989 22125 22178 22266 22405 22423 22444 22370 22349 22385 22353 22448 22502 22671 22741 22925 22981 22960 22940 22870 22869 22990 22925 22937 22895 22975 23012 23042 23106 23236 23137 22965 22974 22929 22990 22946 22964 22999 23181 23343 23487 23535 23607 23797 23838 23944 23870 23701 23546 23496
21109 21099 21033 21062 21110 21010 20954 20788 20636 20719 20688 20739 20810 20902 20938 20975 21122 21063 20934 20734 20666 20719 20706 20687 20606 20455 20247 20134 20023 19898 19812 19642 19583 19419 19211 19081 18930 18750 18585 18557 18468 18306 18278 18124 18065 17975 17807 17735 17773 17635 17560 17565 17466 17484 17420 17396 17341 17164 17115 16919 16712 16521 16342 16024 15760 15646 15520 15262 15168 15035 15048 14902 14864 14930 14953 14972 15055 15027 14992 14873 14742 14823 14830 14827 14981 15022 14993 15004 14923 14873 14743 14564 14386 14260 14198 14246 14144 14131 14085 14011 14020 13997 13995 13905 13878 13959 13996 14036 13971 13929 13912 13723 13620 13729 13808 13734 13729 13734 13802 13736 13803 13756 13704 13679 13564 13587 13608 13590 13493 13585 13589 13523 13578 13712 13952 14073 14169 14286 14420 14496 14456 14502 14399 14435 14599 14626 14715 14789 14909 15125 15217 15384 15477 15610 15694 15944 16114 16111 16196 16247 16332 16456 16683 16807 16843 17041 17162 17200 17263 17397 17450 17484 17569 17632 17770 17839 17861 18069 18228 18435 18573 18826 19024 19259 19482 19637 19897 20017 20230 20410 20601 20660 20867 20967 20956 21047 21138 21140 21099 21092 21027 21089 21254 21279 21375 21473 21716 21790 21985 22057 22128 22238 22285 22399 22326 22357 22358 22465 22491 22610 22672 22707 22839 22873 22854 22898 22904 22898 22961 22949 22817 22838 22849 23027 23082 23122 23264 23120 22985 23019 22913 22950 22918 23003 23098 23117 23294 23385 23554 23711 23772 23860 23931 23783 23684 23527 23490
21127 21100 21001 21027 21030 20999 20853 20680 20585 20629 20701 20767 20888 20913 20933 21012 20980 20842 20735 20574 20454 20491 20534 20419 20397 20189 20108 20038 19971 19849 19698 19599 19492 19272 19148 19071 18889 18741 18544 18516 18438 18315 18309 18069 17933 17859 17723 17735 17682 17624 17563 17600 17558 17518 17517 17411 17337 17230 17168 17039 16834 16678 16426 16162 15796 15638 15471 15296 15066 14966 14892 14831 14829 14814 14928 14995 15067 15043 15017 14844 14741 14815 14864 14853 14954 14990 14946 14979 14941 14815 14736 14596 14342 14245 14152 14114 14147 14108 14082 14052 14042 14037 13951 13927 13808 13816 13796 13884 13913 13894 13858 13760 13614 13730 13724 13649 13616 13702 13744 13747 13839 13689 13623 13457 13406 13498 13594 13517 13540 13549 13553 13480 13476 13567 13760 13869 13981 14175 14311 14369 14387 14413 14326 14364 14515 14548 14629 14695 14858 15007 15158 15408 15546 15722 15860 16042 16154 16201 16146 16256 16295 16457 16590 16679 16842 17064 17175 17259 17323 17287 17358 17441 17539 17605 17661 17800 17860 17992 18182 18267 18442 18702 18895 19119 19383 19587 19722 19915 20021 20315 20505 20632 20824 20870 20892 20974 21022 21047 20947 20879 20825 20953 21064 21082 21084 21253 21381 21579 21857 21925 21958 22127 22230 22310 22357 22351 22351 22414 22540 22656 22649 22708 22742 22792 22800 22774 22864 22866 22808 22845 22759 22767 22762 22923 23105 23171 23221 23178 23115 22966 22928 22989 22982 23075 23106 23137 23261 23461 23658 23691 23691 23827 23845 23715 23629 23578 23560
21202 21087 21003 21043 21034 20904 20862 20718 20557 20545 20645 20631 20779 20731 20745 20834 20843 20690 20660 20588 20378 20310 20330 20339 20291 20129 20006 19878 19714 19635 19516 19400 19314 19241 19147 19060 18893 18628 18474 18449 18363 18184 18209 18117 18003 17956 17856 17765 17776 17757 17627 17565 17578 17495 17509 17362 17316 17214 17049 16918 16832 16587 16444 16083 15806 15712 15477 15315 15146 15010 14969 14887 14886 14902 14952 14989 14949 14861 14825 14740 14662 14718 14797 14853 14880 14833 14890 14898 14786 14635 14617 14441 14334 14224 14162 14127 14044 14074 14055 14012 14029 13979 13863 13742 13711 13758 13769 13741 13815 13842 13849 13755 13668 13725 13780 13735 13686 13633 13660 13751 13838 13746 13589 13479 13468 13413 13409 13413 13476 13467 13391 13397 13351 13426 13629 13797 13906 14087 14133 14184 14282 14243 14367 14354 14474 14525 14619 14707 14792 14946 15182 15405 15506 15653 15767 15975 16119 16140 16161 16338 16370 16447 16578 16639 16740 16870 17094 17107 17152 17249 17348 17474 17566 17572 17678 17820 17873 18070 18296 18409 18492 18604 18707 18990 19285 19503 19634 19799 19851 20124 20418 20572 20699 20683 20718 20809 20817 20788 20742 20616 20621 20735 20822 20922 20942 21030 21192 21430 21576 21677 21824 21879 22073 22143 22218 22269 22268 22403 22516 22644 22689 22708 22703 22727 22782 22804 22813 22823 22823 22715 22715 22676 22657 22812 22905 23064 23233 23139 23072 23112 23151 23158 23169 23164 23274 23345 23319 23530 23608 23675 23710 23803 23889 23740 23606 23576 23463
21152 21161 21111 21129 21027 20968 20820 20657 20601 20556 20621 20577 20660 20621 20630 20739 20760 20631 20562 20488 20317 20248 20166 20196 20194 20041 19826 19712 19531 19364 19293 19198 19224 19214 19118 18962 18838 18634 18433 18322 18164 18092 18084 17996 17975 17919 17867 17821 17791 17777 17748 17696 17631 17570 17475 17401 17273 17198 17057 16959 16843 16583 16360 16098 15923 15723 15602 15348 15115 15035 14988 14993 14985 14998 14980 14886 14842 14850 14758 14680 14680 14665 14607 14698 14696 14719 14766 14711 14666 14572 14590 14388 14300 14160 14062 13971 13847 13847 13974 13980 13978 13894 13851 13667 13526 13644 13643 13642 13706 13791 13832 13833 13793 13789 13812 13822 13717 13713 13639 13656 13734 13706 13585 13510 13413 13341 13317 13256 13299 13297 13179 13224 13249 13364 13507 13592 13800 13884 13853 13944 14055 14142 14300 14289 14398 14435 14491 14632 14792 15041 15184 15316 15350 15539 15750 15973 16163 16257 16301 16374 16444 16447 16498 16545 16632 16832 16907 17022 17043 17161 17279 17427 17483 17629 17755 17824 17969 18197 18320 18447 18461 18541 18647 18829 19072 19312 19528 19669 19702 19997 20248 20415 20481 20497 20472 20496 20557 20550 20515 20439 20381 20374 20488 20631 20835 20871 20985 21145 21195 21410 21603 21662 21834 21906 21987 22132 22228 22350 22534 22607 22680 22754 22722 22771 22868 22741 22718 22703 22746 22660 22645 22616 22602 22670 22823 23014 23145 23087 23148 23144 23263 23268 23328 23366 23418 23425 23480 23595 23653 23657 23693 23760 23841 23735 23555 23490 23444
21166 21240 21266 21137 21069 21057 20949 20802 20647 20532 20526 20478 20517 20544 20577 20606 20662 20487 20451 20264 20079 20021 20098 20072 19953 19761 19626 19462 19441 19350 19171 19184 19107 19037 18874 18854 18782 18552 18456 18287 18059 18018 18005 18010 17949 17938 17916 17808 17816 17749 17735 17663 17579 17449 17460 17339 17229 17194 17010 16975 16762 16538 16357 16155 15984 15786 15635 15342 15135 15111 15020 14936 15016 15051 14950 14918 14802 14773 14679 14687 14581 14599 14580 14554 14534 14640 14697 14654 14577 14478 14434 14307 14280 14080 14061 13872 13791 13793 13839 13874 13821 13780 13794 13693 13483 13513 13488 13519 13601 13645 13762 13885 13852 13827 13897 13748 13740 13649 13680 13741 13718 13637 13514 13427 13246 13249 13183 13130 13135 13102 13130 13147 13129 13256 13461 13489 13623 13655 13734 13777 13907 13997 14087 14160 14179 14337 14449 14534 14739 14896 15104 15286 15422 15583 15739 16013 16149 16142 16234 16313 16404 16477 16524 16581 16621 16706 16744 16858 17001 17075 17221 17405 17534 17710 17744 17930 18036 18093 18279 18365 18428 18509 18628 18854 19005 19187 19422 19546 19627 19863 20045 20150 20284 20275 20342 20345 20397 20287 20316 20220 20237 20203 20227 20446 20642 20772 20830 20949 20935 21148 21282 21377 21566 21752 21823 22011 22059 22271 22472 22526 22607 22682 22623 22747 22830 22718 22758 22730 22764 22639 22597 22587 22606 22678 22804 23025 23157 23190 23230 23350 23365 23388 23501 23501 23529 23484 23540 23603 23780 23785 23720 23782 23888 23724 23560 23458 23394
21295 21286 21298 21269 21212 21188 21039 20879 20715 20626 20515 20509 20432 20397 20465 20463 20523 20390 20334 20177 19934 19895 19909 19852 19786 19546 19412 19309 19287 19221 19136 19017 19002 18889 18757 18736 18707 18490 18393 18186 17932 17936 18008 17920 17942 17962 17928 17869 17733 17714 17679 17611 17465 17406 17392 17265 17249 17124 17041 16982 16797 16519 16369 16158 15922 15842 15669 15498 15282 15201 15069 14969 14967 15013 14948 14849 14789 14644 14568 14619 14578 14563 14534 14477 14309 14443 14545 14608 14550 14479 14296 14233 14263 14074 13992 13873 13756 13758 13769 13820 13771 13741 13728 13632 13484 13384 13412 13463 13453 13657 13787 13891 13931 13898 13880 13743 13665 13706 13697 13730 13772 13637 13392 13269 13182 13109 12972 12940 12995 13039 13007 12969 13051 13251 13336 13355 13411 13481 13669 13683 13753 13836 13945 14001 14052 14242 14375 14562 14660 14794 14998 15239 15374 15571 15768 15983 16100 16108 16121 16214 16374 16487 16592 16586 16620 16626 16701 16787 16956 17172 17284 17455 17612 17689 17859 17935 18001 18112 18161 18274 18293 18412 18600 18817 18974 19110 19224 19286 19477 19691 19816 20016 20149 20234 20242 20177 20135 20112 20116 20102 19985 20090 20091 20223 20412 20521 20574 20657 20718 20910 21069 21226 21396 21558 21694 21834 22003 22228 22396 22411 22537 22560 22611 22741 22753 22730 22723 22766 22723 22651 22600 22608 22642 22803 22840 23108 23259 23351 23426 23471 23475 23521 23628 23559 23600 23675 23686 23699 23821 23752 23808 23811 23817 23749 23597 23478 23417
21304 21296 21377 21342 21214 21065 20945 20797 20743 20715 20671 20576 20456 20390 20335 20434 20449 20377 20344 20133 19912 19923 19936 19863 19887 19734 19577 19410 19290 19261 19168 19125 18999 18929 18790 18727 18672 18413 18339 18140 17926 17951 18011 17940 17942 17863 17841 17816 17772 17731 17623 17465 17331 17279 17245 17191 17024 16891 16820 16672 16521 16384 16207 16060 15923 15735 15638 15487 15281 15134 14998 14899 14843 14841 14834 14789 14767 14656 14567 14497 14493 14491 14529 14361 14205 14306 14391 14431 14304 14282 14160 14208 14148 14072 13880 13851 13737 13747 13843 13791 13724 13698 13627 13648 13601 13546 13573 13513 13513 13638 13744 13762 13838 13810 13813 13661 13615 13654 13671 13698 13741 13588 13342 13292 13310 13104 13040 13024 13061 13084 13143 13125 13058 13184 13407 13484 13528 13525 13692 13700 13720 13801 13983 13990 14095 14295 14472 14569 14733 14787 14961 15083 15288 15483 15784 15930 16012 16076 16086 16253 16283 16431 16573 16515 16567 16642 16757 16786 16959 17117 17233 17418 17604 17738 17772 17900 17942 17948 18040 18130 18239 18374 18424 18633 18758 18919 19081 19126 19314 19467 19617 19849 20002 19987 20120 20057 19986 19983 20072 20076 20011 20059 20104 20165 20201 20268 20392 20520 20637 20825 21010 21169 21259 21426 21505 21697 21809 22024 22273 22276 22460 22482 22526 22619 22738 22689 22656 22676 22656 22561 22524 22567 22660 22743 22869 23159 23290 23374 23438 23540 23574 23535 23549 23609 23690 23732 23778 23756 23776 23757 23843 23819 23782 23735 23524 23495 23372
21394 21427 21427 21319 21245 21130 20933 20874 20891 20871 20743 20626 20393 20329 20278 20315 20319 20312 20228 20148 19953 20011 19943 19911 19870 19814 19702 19517 19364 19265 19147 19132 19050 18959 18848 18694 18541 18393 18297 18097 17974 18093 18094 17960 17854 17791 17721 17746 17790 17655 17457 17416 17271 17212 17120 17025 16927 16843 16687 16507 16363 16203 16141 15974 15910 15730 15562 15418 15199 15053 14958 14947 14812 14765 14640 14645 14622 14667 14599 14542 14506 14541 14491 14397 14217 14244 14152 14176 14169 14068 14024 14054 14048 13944 13844 13854 13834 13788 13868 13840 13789 13659 13632 13659 13722 13721 13727 13561 13519 13627 13669 13694 13750 13694 13742 13617 13458 13450 13542 13582 13644 13409 13292 13267 13313 13124 12985 13002 13035 13071 13184 13130 12989 13170 13414 13514 13558 13632 13682 13742 13742 13858 14025 13999 14056 14219 14463 14676 14815 14853 14871 15071 15203 15442 15687 15811 16023 16126 16117 16208 16237 16355 16476 16484 16588 16596 16719 16788 16925 17140 17288 17542 17674 17649 17746 17717 17774 17843 17963 18105 18132 18256 18313 18524 18657 18806 18876 19034 19144 19248 19399 19578 19797 19850 19988 19944 19832 19842 19969 20004 19926 19943 20029 20060 19976 20105 20139 20333 20434 20694 20875 20980 21187 21299 21359 21475 21693 21943 22158 22179 22319 22333 22366 22516 22611 22663 22611 22647 22687 22664 22569 22542 22589 22723 22876 23121 23336 23328 23441 23442 23548 23594 23521 23621 23811 23888 23915 23920 23815 23826 23958 23850 23830 23648 23572 23480 23265
21403 21432 21366 21248 21218 21162 20978 20856 20826 20797 20783 20535 20364 20384 20257 20212 20193 20203 20298 20105 20001 19993 19945 19925 19897 19813 19710 19598 19412 19327 19304 19192 19150 19052 18842 18756 18545 18399 18316 18168 18051 18106 18123 18067 17869 17821 17764 17793 17777 17681 17434 17335 17195 17087 17055 17014 16859 16710 16629 16477 16231 16087 15957 15940 15805 15673 15418 15366 15156 14954 14888 14852 14740 14673 14617 14632 14631 14560 14520 14436 14332 14433 14413 14260 14162 14091 14067 14004 13966 13926 13901 14001 14024 13877 13786 13862 13869 13826 13899 13871 13825 13720 13752 13719 13861 13799 13842 13744 13629 13627 13637 13690 13667 13643 13518 13426 13360 13366 13468 13432 13410 13416 13312 13298 13274 13102 13012 13035 13055 13152 13291 13146 13018 13258 13465 13446 13523 13655 13677 13723 13778 13858 13981 14039 14147 14312 14510 14713 14827 14832 14844 14998 15211 15369 15552 15689 15888 16027 16116 16111 16173 16324 16365 16437 16491 16503 16636 16750 16957 17030 17230 17362 17557 17565 17668 17712 17725 17854 17902 18028 18129 18100 18161 18341 18442 18637 18739 18880 19145 19276 19402 19621 19758 19730 19836 19772 19828 19786 19865 19795 19812 19798 19824 19891 19802 19905 20016 20211 20248 20512 20693 20825 21076 21171 21167 21398 21587 21736 22048 22105 22148 22250 22206 22333 22521 22634 22618 22666 22658 22676 22728 22594 22553 22745 22957 23089 23318 23322 23408 23492 23570 23600 23509 23667 23839 23928 23899 23931 23881 23971 24013 23893 23690 23547 23432 23412 23272
21320 21360 21394 21258 21240 21098 21016 20903 20837 20722 20722 20606 20463 20373 20246 20173 20129 20248 20261 20191 20172 20121 20064 19985 19970 19886 19831 19669 19522 19507 19395 19308 19184 19080 18860 18707 18583 18490 18372 18224 18103 18062 18057 18071 17971 17937 17784 17733 17722 17610 17511 17322 17184 17040 17017 16904 16843 16723 16567 16405 16164 15970 15859 15841 15742 15511 15347 15245 15157 14969 14868 14795 14740 14731 14606 14585 14574 14449 14358 14295 14254 14308 14254 14202 14157 14120 14004 13953 13797 13793 13818 13845 13941 13794 13748 13712 13790 13773 13859 13876 13858 13793 13793 13839 13890 13886 13897 13779 13763 13639 13621 13563 13581 13538 13374 13312 13301 13314 13340 13245 13277 13293 13214 13209 13247 13199 13106 13128 13185 13187 13288 13205 13172 13342 13447 13467 13480 13538 13680 13832 13902 13917 13923 14073 14200 14363 14541 14648 14766 14898 14917 15003 15176 15417 15534 15711 15866 15991 16144 16176 16190 16256 16271 16372 16364 16464 16662 16828 16915 17034 17219 17366 17549 17538 17517 17570 17678 17770 17738 17879 18003 17996 18035 18117 18315 18484 18568 18779 19042 19253 19346 19497 19621 19688 19773 19725 19737 19633 19654 19688 19703 19703 19736 19690 19751 19847 19845 19997 20186 20320 20572 20772 20848 21000 21081 21207 21432 21615 21867 22032 22080 22082 22157 22243 22406 22490 22666 22771 22755 22815 22776 22644 22625 22856 23066 23111 23253 23379 23397 23449 23566 23555 23552 23679 23776 23855 23851 23999 24022 23939 23959 23830 23648 23479 23374 23356 23292
21208 21274 21196 21206 21133 21026 21015 20926 20838 20806 20785 20560 20452 20318 20112 20047 20056 20109 20096 20130 20096 20085 20053 19935 19890 19859 19791 19670 19523 19481 19369 19278 19226 19054 18921 18781 18653 18506 18428 18352 18135 18187 18108 18060 17987 17885 17844 17715 17662 17542 17470 17360 17212 17040 16936 16903 16765 16684 16469 16395 16147 16031 15816 15786 15739 15491 15248 15203 15195 15047 14933 14846 14654 14617 14569 14546 14524 14350 14240 14242 14229 14240 14118 14127 13998 13925 13861 13677 13610 13674 13678 13792 13814 13847 13850 13874 13881 13885 13775 13831 13890 13914 13899 13863 13924 13934 13846 13849 13735 13710 13768 13686 13644 13607 13441 13454 13372 13414 13390 13326 13255 13219 13196 13166 13174 13189 13094 13094 13100 13165 13321 13296 13323 13391 13458 13477 13499 13630 13727 13754 13840 13987 14011 14124 14124 14368 14585 14716 14771 14820 14988 15016 15163 15406 15508 15649 15817 16070 16174 16200 16126 16212 16214 16325 16400 16455 16651 16871 16976 17148 17296 17406 17663 17611 17573 17627 17770 17719 17726 17827 18028 18057 18038 18188 18326 18359 18475 18617 18848 18997 19084 19244 19425 19460 19649 19672 19706 19661 19514 19607 19644 19673 19706 19660 19607 19709 19840 19945 19996 20159 20386 20591 20764 20855 20970 21057 21262 21475 21659 21877 21946 21989 22080 22245 22428 22476 22631 22722 22641 22660 22718 22772 22753 22942 23071 23171 23226 23267 23335 23394 23499 23543 23462 23598 23731 23808 23790 23966 23955 23937 23873 23719 23604 23554 23480 23460 23320
21130 21110 21019 21023 21020 20973 21043 20945 20847 20794 20732 20521 20348 20254 20087 20016 19972 19920 19962 20077 20129 20054 20079 19972 19865 19718 19682 19577 19548 19475 19454 19346 19315 19142 18922 18749 18624 18618 18516 18408 18223 18259 18238 18102 18004 17936 17892 17695 17602 17535 17375 17315 17133 16990 16850 16858 16761 16634 16462 16330 16119 16027 15868 15776 15615 15429 15252 15245 15159 15063 14932 14800 14697 14679 14633 14511 14414 14344 14176 14203 14194 14147 14045 14005 13877 13803 13628 13518 13505 13551 13555 13601 13730 13765 13848 13829 13851 13868 13781 13777 13878 13882 13900 13905 13888 13877 13808 13789 13786 13754 13789 13707 13674 13571 13475 13501 13483 13358 13360 13287 13250 13179 13146 13058 13075 13037 12998 13060 13004 13163 13280 13370 13389 13480 13470 13520 13571 13707 13774 13823 13873 13968 14009 14046 14177 14425 14619 14684 14736 14835 14970 15061 15122 15343 15512 15741 15866 16048 16128 16170 16119 16224 16212 16358 16405 16506 16685 16821 17033 17141 17376 17474 17681 17713 17704 17771 17745 17703 17782 17903 18024 18019 18025 18175 18283 18377 18376 18513 18718 18821 18859 18943 19106 19320 19517 19615 19604 19541 19426 19465 19481 19529 19666 19558 19531 19607 19710 19788 19893 20123 20257 20471 20799 20792 20853 20908 21013 21309 21512 21646 21790 21867 22045 22203 22460 22508 22582 22637 22626 22667 22739 22779 22793 22888 23069 23109 23239 23287 23215 23296 23420 23427 23379 23433 23580 23654 23757 23870 24016 23965 23850 23775 23607 23585 23560 23520 23382
21059 20982 20961 21042 21030 20948 20971 20904 20882 20719 20594 20400 20216 20134 20048 20004 19852 19932 19940 19981 19949 19936 19937 19917 19791 19766 19693 19557 19514 19529 19446 19410 19283 19167 18947 18793 18653 18711 18644 18532 18309 18307 18194 18124 18153 18001 17871 17701 17543 17428 17227 17205 17061 16968 16880 16746 16747 16566 16390 16224 16108 15967 15908 15712 15647 15459 15339 15249 15135 15046 14944 14772 14666 14555 14506 14399 14399 14336 14182 14211 14143 13962 13872 13821 13734 13629 13619 13466 13487 13533 13596 13680 13676 13735 13803 13896 13888 13837 13809 13970 13965 13958 13976 13863 13890 13835 13888 13915 13893 13881 13794 13746 13588 13568 13506 13486 13493 13327 13234 13159 13144 13097 13046 13006 13037 13038 13029 13102 13082 13153 13393 13462 13536 13497 13613 13586 13612 13683 13841 13862 13801 14024 14091 14124 14238 14444 14557 14672 14719 14869 14990 15082 15119 15292 15433 15601 15739 15966 15977 16096 16067 16159 16205 16367 16441 16627 16674 16854 17056 17240 17377 17477 17661 17719 17693 17711 17850 17867 17892 18026 18107 18133 18101 18212 18231 18269 18335 18494 18647 18713 18845 18840 18880 19039 19309 19343 19424 19388 19378 19407 19412 19549 19534 19588 19561 19560 19614 19645 19742 20047 20238 20420 20697 20704 20710 20852 20890 21220 21390 21549 21684 21819 22098 22216 22531 22537 22653 22689 22613 22698 22684 22760 22884 23053 23116 23165 23229 23155 23166 23272 23357 23423 23366 23465 23585 23661 23697 23812 23929 23866 23715 23745 23723 23680 23563 23484 23391
21062 20937 20883 20920 20955 20881 20816 20757 20801 20652 20561 20286 20127 20006 20009 19868 19835 19813 19801 19833 19868 19905 19872 19785 19801 19763 19732 19699 19549 19499 19529 19466 19357 19168 18933 18824 18729 18705 18679 18584 18411 18294 18218 18158 18197 18016 17917 17750 17494 17392 17174 17092 17035 16965 16800 16644 16608 16462 16373 16263 16100 15987 15899 15765 15684 15574 15385 15255 15183 15008 14905 14695 14590 14520 14488 14406 14357 14349 14235 14080 13997 13869 13741 13637 13612 13583 13515 13468 13462 13502 13520 13606 13727 13720 13812 13872 13843 13959 13954 14079 14078 14005 14004 13933 13937 13851 13867 13877 13983 13921 13872 13686 13559 13605 13540 13477 13458 13384 13200 13142 12976 13070 13066 13090 13070 13028 13095 13116 13074 13228 13415 13558 13654 13605 13649 13634 13741 13746 13821 13773 13853 13995 14160 14155 14225 14408 14540 14566 14696 14797 14925 15052 15133 15279 15463 15555 15702 15861 15949 16009 15951 16017 16134 16383 16544 16646 16766 17009 17131 17288 17396 17551 17582 17578 17653 17778 17829 17912 18104 18141 18164 18200 18189 18213 18131 18163 18254 18382 18575 18705 18764 18689 18717 18880 19089 19142 19285 19274 19345 19352 19441 19484 19471 19470 19519 19594 19626 19613 19697 19985 20201 20352 20514 20574 20600 20680 20846 21051 21176 21386 21517 21782 22071 22248 22529 22585 22696 22754 22720 22730 22737 22835 22918 23084 23147 23080 23139 23080 23133 23232 23382 23435 23452 23554 23545 23585 23696 23726 23852 23826 23700 23723 23746 23634 23513 23472 23454
21143 21083 21031 21037 21022 20931 20899 20901 20866 20799 20624 20467 20275 20125 20060 19999 19802 19861 19778 19923 19923 19904 19803 19779 19663 19709 19584 19628 19586 19540 19474 19369 19379 19153 18924 18764 18740 18725 18633 18515 18381 18291 18187 18123 18212 18019 17962 17748 17586 17373 17241 17077 17040 16866 16697 16632 16610 16474 16458 16273 16084 15999 15890 15857 15725 15516 15382 15269 15172 15067 14996 14819 14666 14580 14657 14546 14405 14268 14167 14139 14093 14072 13922 13854 13826 13806 13638 13594 13647 13652 13549 13712 13907 13901 13857 13903 13879 13861 13839 13981 13995 13980 13923 13943 13828 13885 13881 13857 14013 13837 13809 13680 13606 13562 13522 13389 13394 13302 13091 13056 12839 12873 12976 12930 12911 12954 13013 12990 13023 13169 13333 13538 13641 13575 13695 13746 13716 13730 13711 13722 13822 13895 13989 14126 14246 14362 14520 14548 14658 14743 14891 14899 14986 15117 15251 15496 15677 15780 15818 15828 15852 16011 16168 16368 16447 16592 16717 16910 17005 17132 17216 17299 17373 17328 17447 17474 17615 17749 17831 17948 17961 17977 18012 18010 18089 18100 18175 18279 18418 18574 18629 18511 18479 18730 18839 19038 19120 19198 19250 19202 19266 19336 19364 19323 19355 19388 19542 19541 19681 19894 20090 20256 20405 20459 20571 20645 20828 20952 21179 21260 21452 21771 22053 22117 22383 22478 22553 22551 22480 22560 22613 22740 22827 22817 22890 23005 22996 23042 23164 23277 23498 23564 23491 23605 23623 23702 23694 23811 23899 23819 23791 23825 23827 23616 23513 23503 23426
21111 21122 21106 21076 21021 20983 20993 20972 21033 20893 20627 20581 20410 20256 20076 20022 19851 19853 19855 19943 20037 19929 19791 19667 19651 19603 19544 19495 19559 19413 19307 19386 19383 19107 18926 18758 18670 18591 18476 18408 18270 18166 18186 18121 18152 18020 17938 17796 17588 17418 17304 17172 17016 16890 16712 16715 16651 16551 16429 16272 16062 16001 16003 15823 15755 15567 15470 15290 15209 15160 15128 14944 14704 14715 14701 14627 14459 14358 14210 14165 14222 14157 14053 14044 14011 13992 13849 13825 13745 13763 13706 13769 13961 13921 13860 13874 13894 13901 13838 13964 14009 13973 13971 13884 13775 13846 13899 13868 13925 13837 13701 13609 13556 13588 13527 13363 13313 13189 13073 12963 12815 12752 12789 12730 12784 12843 12975 12915 12979 13145 13297 13465 13577 13618 13732 13803 13753 13761 13682 13744 13840 13865 13944 14079 14214 14404 14475 14549 14640 14755 14840 14839 14914 15021 15093 15368 15593 15675 15696 15768 15873 16031 16196 16285 16385 16428 16595 16737 16900 16969 17087 17071 17161 17172 17199 17310 17442 17554 17663 17732 17826 17904 17889 17919 17922 18056 18086 18210 18268 18313 18386 18305 18316 18482 18552 18799 19031 19055 19122 19045 19089 19202 19222 19253 19261 19303 19428 19570 19716 19801 19983 20136 20408 20442 20528 20631 20807 20996 21125 21224 21391 21657 21922 22020 22127 22312 22371 22402 22342 22378 22511 22555 22681 22709 22761 22809 22858 23010 23104 23330 23589 23611 23590 23644 23678 23704 23717 23785 23940 23921 23926 23868 23800 23686 23470 23407 23420
21199 21193 21102 21076 21034 21049 20987 21072 21114 20927 20683 20679 20564 20324 20191 20095 19929 19962 19920 20019 20047 19986 19865 19765 19727 19627 19543 19527 19407 19368 19336 19325 19305 19092 18946 18767 18570 18461 18319 18255 18143 18061 18143 18085 18073 17895 17788 17698 17527 17378 17159 17073 16997 16900 16713 16666 16626 16429 16275 16203 16126 16002 15970 15786 15735 15542 15435 15385 15293 15197 15157 15066 14916 14852 14752 14569 14405 14302 14271 14338 14337 14233 14152 14135 14193 14039 13904 13847 13831 13824 13799 13825 13980 13987 13994 14028 14023 13909 13823 13909 13865 13884 13803 13779 13708 13753 13845 13814 13821 13794 13688 13559 13544 13545 13466 13385 13297 13132 13004 12877 12738 12698 12781 12700 12679 12787 12965 12963 12889 13163 13322 13383 13563 13686 13715 13686 13715 13767 13660 13722 13785 13871 13870 14022 14073 14207 14361 14438 14541 14652 14681 14749 14767 14905 14979 15186 15451 15529 15568 15640 15814 16028 16212 16274 16400 16540 16644 16652 16863 16912 16964 16885 16932 17040 17045 17191 17320 17396 17589 17534 17596 17637 17713 17787 17919 17925 17855 17964 18015 18071 18120 18109 18140 18301 18344 18619 18871 18818 18925 18835 18913 18931 19033 18992 19044 19186 19434 19589 19661 19862 20111 20284 20415 20447 20480 20635 20809 21015 21076 21151 21308 21517 21846 21926 22058 22163 22159 22261 22286 22370 22560 22563 22730 22675 22762 22845 22842 22984 23158 23318 23560 23550 23615 23628 23657 23655 23662 23811 23891 23864 23883 23817 23794 23686 23468 23460 23441
21282 21256 21166 21067 21066 21126 21106 21108 21162 20984 20778 20769 20649 20491 20291 20201 20107 20094 20079 20109 20142 20046 19903 19829 19723 19692 19658 19553 19350 19293 19254 19191 19179 19056 18851 18576 18430 18336 18182 18179 18110 18033 18064 18082 18028 17801 17615 17567 17438 17275 17107 16973 16965 16865 16818 16678 16584 16360 16227 16140 16116 16005 15947 15785 15621 15597 15487 15435 15265 15287 15189 15120 15044 14897 14747 14662 14478 14394 14373 14347 14352 14248 14262 14243 14268 14063 13976 13868 13862 13906 13935 13891 13961 14034 14140 14136 14088 14005 13907 13862 13768 13689 13721 13647 13644 13700 13799 13775 13793 13625 13555 13510 13550 13537 13420 13438 13358 13132 12937 12838 12718 12725 12747 12754 12649 12811 12854 12847 12881 13087 13257 13363 13448 13603 13648 13655 13744 13717 13674 13713 13627 13763 13805 13937 14049 14069 14217 14330 14398 14407 14455 14491 14587 14687 14855 15118 15314 15339 15438 15635 15718 16002 16170 16308 16380 16492 16569 16605 16732 16746 16728 16721 16775 16806 16964 17159 17279 17353 17413 17396 17430 17517 17642 17757 17854 17733 17733 17813 17815 17829 17936 18012 18046 18194 18259 18442 18637 18645 18705 18675 18703 18800 18807 18788 18894 19187 19365 19460 19607 19806 20121 20296 20457 20460 20462 20615 20711 20934 21034 21161 21253 21507 21744 21912 21981 21959 21997 22030 22109 22310 22489 22522 22667 22683 22741 22736 22771 23082 23289 23474 23602 23551 23621 23671 23738 23712 23705 23774 23889 23812 23849 23793 23862 23691 23572 23410 23352
21244 21238 21142 21036 21075 21080 21087 21128 21168 21073 20933 20789 20723 20554 20425 20310 20305 20207 20270 20270 20230 20067 20016 19921 19780 19731 19706 19516 19313 19228 19236 19267 19262 19090 18757 18618 18451 18361 18266 18168 18103 18146 18085 18062 18062 17914 17788 17721 17563 17374 17145 16976 16894 16797 16776 16679 16497 16353 16265 16168 16109 16029 15914 15746 15708 15698 15617 15442 15403 15380 15278 15195 15095 14997 14964 14760 14637 14633 14556 14583 14560 14477 14373 14386 14441 14314 14176 14044 14041 14075 14015 13975 14018 14109 14153 14172 14213 14117 14111 14025 13939 13780 13712 13694 13623 13690 13860 13784 13792 13678 13536 13504 13567 13617 13493 13428 13376 13171 13090 12914 12836 12688 12621 12589 12615 12674 12808 12777 12745 12874 13083 13228 13268 13435 13595 13634 13710 13638 13649 13594 13549 13598 13755 13818 14015 14030 14092 14143 14316 14322 14323 14490 14570 14619 14825 15048 15154 15297 15413 15543 15706 15883 16118 16280 16334 16541 16630 16686 16778 16758 16787 16765 16651 16743 16955 17031 17107 17208 17304 17322 17325 17430 17571 17607 17713 17615 17680 17757 17771 17763 17875 17837 17851 17997 18103 18258 18464 18551 18688 18611 18703 18717 18689 18719 18825 19033 19305 19475 19529 19737 20041 20245 20393 20369 20389 20517 20691 20835 21052 21158 21198 21446 21650 21777 21963 22036 22051 22045 22113 22190 22383 22447 22502 22631 22629 22663 22695 23035 23250 23329 23497 23529 23518 23585 23619 23666 23640 23732 23756 23699 23779 23830 23813 23658 23542 23455 23331
21183 21127 21094 21048 21032 21112 21099 21140 21299 21234 21073 20886 20718 20615 20491 20476 20418 20362 20386 20330 20328 20220 20118 20023 19914 19909 19790 19590 19314 19280 19311 19231 19241 19052 18752 18591 18433 18320 18271 18172 18074 18111 18072 18087 18021 17975 17861 17739 17629 17352 17134 16987 16888 16777 16756 16641 16480 16320 16204 16220 16144 16045 15886 15797 15709 15731 15644 15566 15444 15365 15393 15292 15152 15074 15104 14908 14704 14710 14692 14742 14762 14656 14559 14535 14608 14434 14320 14239 14139 14202 14168 14078 14094 14023 14064 14151 14345 14282 14268 14177 14046 13910 13831 13622 13515 13603 13813 13800 13885 13750 13625 13637 13712 13685 13576 13512 13425 13272 13117 13050 12901 12786 12577 12528 12476 12570 12728 12651 12629 12737 12917 13077 13211 13330 13444 13556 13635 13554 13508 13462 13448 13535 13627 13713 13856 13849 13906 13982 14166 14170 14275 14402 14578 14582 14712 14905 15051 15121 15293 15520 15719 15887 16092 16188 16273 16483 16610 16653 16744 16733 16750 16711 16634 16717 16887 16947 17028 17050 17198 17209 17232 17383 17413 17507 17574 17589 17668 17719 17756 17790 17760 17680 17718 17859 17999 18143 18335 18517 18608 18615 18667 18715 18662 18645 18742 19004 19290 19444 19532 19809 19968 20133 20361 20303 20370 20561 20732 20865 20957 21031 21188 21402 21619 21756 21840 21929 21988 22094 22094 22188 22252 22313 22459 22555 22596 22636 22610 22935 23190 23346 23481 23462 23479 23585 23627 23669 23685 23672 23746 23675 23693 23693 23749 23668 23505 23357 23276
21103 21121 21181 21145 21120 21060 21146 21241 21297 21206 21158 21022 20810 20759 20620 20556 20536 20567 20546 20504 20419 20301 20081 20056 20053 19908 19877 19646 19460 19254 19213 19259 19180 18938 18828 18722 18484 18467 18413 18249 18105 18089 18048 17958 17907 17869 17774 17626 17631 17340 17200 17083 16886 16721 16696 16494 16384 16277 16240 16276 16163 16006 15808 15799 15716 15709 15701 15650 15579 15537 15442 15319 15284 15251 15256 14964 14848 14824 14796 14828 14919 14774 14727 14710 14752 14542 14430 14334 14215 14158 14240 14101 14097 14138 14159 14194 14298 14325 14331 14193 14081 13948 13856 13741 13590 13664 13670 13735 13879 13806 13710 13758 13723 13701 13566 13471 13335 13204 13062 13007 12867 12795 12609 12501 12490 12516 12637 12613 12512 12705 12878 12989 13104 13314 13441 13459 13577 13589 13489 13424 13424 13389 13451 13627 13743 13818 13928 13978 14091 14143 14207 14371 14558 14651 14652 14819 15005 15059 15207 15431 15663 15870 15971 16094 16187 16325 16488 16610 16663 16677 16633 16589 16611 16702 16843 16814 16888 16960 17055 17116 17040 17149 17307 17450 17504 17549 17565 17549 17660 17688 17660 17584 17574 17708 17956 18096 18288 18412 18467 18523 18515 18557 18633 18729 18729 18937 19256 19339 19479 19801 19978 20047 20288 20247 20334 20507 20655 20824 20880 21039 21211 21438 21588 21681 21862 21964 21903 22069 22118 22106 22160 22161 22264 22377 22519 22628 22666 22841 23093 23287 23404 23468 23573 23635 23629 23608 23602 23730 23751 23630 23688 23690 23709 23622 23413 23352 23321
20999 21020 21165 21139 21094 21042 21107 21174 21187 21187 21155 21029 20895 20845 20714 20793 20756 20670 20653 20530 20509 20360 20164 20103 20069 19936 19845 19627 19492 19322 19240 19165 19109 18905 18784 18757 18641 18610 18456 18295 18237 18135 17982 17889 17835 17725 17712 17602 17602 17414 17175 17068 16853 16670 16546 16472 16410 16334 16322 16293 16186 16060 15858 15686 15629 15654 15684 15606 15643 15589 15544 15475 15394 15336 15307 15095 15009 15063 15015 15014 15019 14961 14932 14843 14779 14651 14488 14432 14261 14234 14285 14241 14188 14188 14178 14245 14360 14411 14351 14183 14135 14028 13913 13778 13572 13593 13568 13698 13804 13869 13844 13807 13787 13714 13612 13505 13342 13227 13020 12960 12884 12766 12598 12490 12497 12513 12496 12442 12496 12621 12849 12991 13058 13184 13352 13380 13508 13529 13516 13423 13331 13328 13326 13407 13573 13664 13848 13999 14026 14130 14235 14367 14449 14585 14650 14722 14838 15009 15246 15445 15709 15789 15853 15952 16129 16308 16492 16582 16689 16643 16591 16496 16512 16605 16714 16729 16701 16781 16875 16954 16944 17121 17181 17258 17399 17446 17381 17468 17606 17596 17675 17645 17517 17694 17848 18052 18174 18185 18240 18367 18399 18590 18694 18784 18765 18991 19254 19372 19542 19735 19876 20042 20207 20239 20366 20448 20627 20757 20780 21039 21187 21325 21462 21680 21907 21914 21925 21948 22066 22065 22088 22103 22067 22147 22331 22545 22640 22785 23021 23211 23434 23465 23619 23625 23666 23679 23633 23690 23776 23626 23580 23566 23637 23503 23417 23471 23449
20979 21013 21091 21044 21104 21138 21133 21162 21146 21092 21109 21086 20978 20852 20766 20802 20698 20744 20687 20569 20598 20356 20132 20135 20120 19921 19827 19636 19568 19446 19264 19226 19111 18983 18821 18673 18511 18396 18247 18181 18096 17982 17907 17893 17762 17663 17640 17564 17466 17335 17143 17043 16867 16767 16612 16559 16427 16413 16366 16265 16238 16090 15857 15797 15682 15628 15678 15692 15638 15616 15589 15609 15529 15471 15299 15233 15104 15060 15079 15084 15125 15034 14964 14881 14852 14656 14537 14441 14317 14347 14365 14324 14207 14200 14161 14163 14310 14316 14294 14143 14126 14020 13837 13725 13582 13659 13601 13719 13755 13732 13645 13579 13608 13625 13564 13460 13332 13250 13053 13029 12828 12720 12697 12614 12485 12510 12409 12413 12414 12587 12734 12879 13026 13206 13335 13408 13527 13554 13562 13449 13409 13438 13415 13436 13560 13604 13777 13973 14113 14197 14242 14427 14519 14608 14734 14857 14960 15078 15214 15350 15518 15632 15714 15874 16069 16187 16343 16490 16601 16606 16578 16594 16528 16480 16565 16490 16444 16653 16656 16771 16760 16983 17073 17112 17201 17167 17259 17404 17563 17512 17539 17445 17327 17555 17721 17894 18036 18061 18048 18213 18376 18460 18594 18722 18797 18965 19223 19330 19360 19574 19741 19856 20037 20146 20268 20331 20517 20655 20806 20923 21108 21286 21437 21538 21733 21835 21885 21865 21934 21975 22076 22023 21997 22067 22216 22393 22552 22695 22865 23025 23293 23388 23371 23534 23585 23664 23662 23710 23688 23572 23536 23568 23532 23553 23469 23460 23523
21053 20977 20998 21015 21056 21058 21075 21097 21114 21079 21112 21024 20991 20882 20807 20781 20649 20670 20656 20664 20588 20335 20175 20164 20100 19942 19775 19728 19645 19474 19310 19231 19166 19000 18803 18671 18420 18321 18115 18052 18009 17984 17956 17881 17798 17756 17593 17464 17416 17319 17204 17032 16853 16767 16636 16557 16387 16393 16414 16359 16244 16117 15945 15782 15681 15671 15663 15736 15721 15670 15588 15598 15635 15504 15366 15352 15239 15163 15168 15190 15249 15138 15057 15014 14949 14804 14601 14564 14407 14365 14324 14314 14226 14242 14160 14118 14169 14205 14259 14117 14077 13911 13856 13675 13618 13617 13625 13606 13667 13573 13511 13440 13420 13434 13461 13355 13359 13304 13138 13057 12857 12836 12713 12697 12557 12547 12431 12483 12448 12558 12682 12897 13073 13179 13368 13540 13636 13624 13515 13517 13448 13457 13450 13500 13480 13611 13731 13976 14119 14245 14348 14501 14552 14709 14886 15014 15067 15185 15213 15324 15422 15542 15611 15806 15979 16162 16309 16419 16514 16473 16538 16525 16428 16469 16433 16324 16308 16479 16535 16642 16683 16820 16856 16908 16990 17019 17176 17229 17394 17390 17372 17303 17249 17425 17493 17671 17854 17872 17959 18052 18269 18435 18480 18686 18769 18933 19134 19150 19179 19358 19625 19774 19880 20069 20217 20214 20319 20498 20769 20816 20923 21135 21293 21482 21624 21669 21828 21815 21841 21938 22033 22009 21952 22068 22103 22337 22521 22664 22815 22969 23237 23206 23235 23328 23436 23598 23655 23743 23709 23585 23430 23434 23473 23530 23584 23593 23659
21016 20960 21123 21090 21136 21052 21123 21124 21146 21068 21033 21034 20915 20889 20828 20696 20620 20638 20686 20589 20539 20372 20205 20082 20042 19952 19927 19813 19744 19535 19403 19324 19216 19042 18829 18592 18436 18213 18005 17957 17911 17879 17780 17754 17697 17525 17445 17333 17333 17315 17208 17092 16971 16763 16606 16448 16375 16450 16481 16447 16397 16248 16061 15922 15811 15793 15741 15707 15645 15658 15622 15607 15717 15576 15458 15463 15344 15384 15278 15350 15396 15264 15198 15029 14949 14862 14692 14679 14563 14540 14365 14349 14208 14245 14211 14081 14048 14124 14113 14023 14065 13944 13947 13815 13686 13707 13667 13651 13635 13605 13475 13383 13224 13356 13353 13345 13400 13221 13212 13130 12985 12955 12752 12836 12768 12670 12528 12578 12531 12673 12726 12903 12989 13135 13325 13456 13694 13645 13565 13562 13580 13617 13567 13519 13417 13563 13687 13943 14182 14275 14350 14474 14584 14787 14894 15042 15023 15099 15138 15281 15310 15422 15531 15668 15925 16052 16103 16172 16323 16366 16369 16358 16427 16326 16365 16226 16201 16233 16321 16493 16514 16612 16629 16821 16918 16995 17074 17113 17269 17324 17306 17243 17257 17310 17438 17524 17723 17779 17916 18045 18248 18391 18498 18573 18730 18894 19097 19038 19075 19287 19481 19629 19703 19902 19996 20175 20294 20490 20677 20722 20949 21028 21135 21298 21470 21551 21716 21737 21847 21872 21845 21874 21878 22028 22056 22238 22427 22548 22696 22816 23037 23142 23186 23227 23249 23413 23531 23645 23713 23543 23456 23446 23412 23592 23597 23635 23633
20853 20977 21123 21131 21217 21135 21134 21143 21108 21068 20973 21001 20915 20890 20864 20729 20698 20662 20616 20635 20568 20421 20215 20109 20035 19970 19955 19827 19813 19668 19622 19404 19276 19060 18770 18629 18436 18220 17985 17842 17716 17660 17596 17575 17592 17442 17281 17226 17177 17184 17105 17066 17005 16815 16601 16483 16406 16430 16491 16505 16441 16282 16113 15934 15857 15832 15700 15700 15653 15732 15706 15657 15709 15541 15497 15497 15524 15546 15477 15490 15424 15294 15224 15021 14914 14938 14840 14811 14771 14706 14525 14373 14198 14221 14164 14115 13964 13930 13963 13997 14058 14036 14030 13873 13765 13717 13756 13739 13718 13535 13479 13309 13143 13269 13322 13333 13355 13219 13183 13135 13073 13029 12866 12909 12868 12760 12658 12657 12571 12731 12811 12873 12952 13175 13335 13505 13676 13743 13691 13618 13605 13619 13561 13427 13320 13456 13658 13847 14142 14281 14427 14490 14543 14743 14871 15020 15077 15083 15122 15106 15157 15283 15383 15617 15861 15928 15979 16063 16256 16265 16228 16227 16326 16278 16342 16188 16118 16096 16168 16261 16268 16406 16482 16579 16724 16841 16903 17033 17227 17168 17116 17078 17143 17206 17293 17489 17693 17818 17835 18053 18234 18378 18475 18575 18735 18836 18974 18983 19008 19129 19212 19386 19591 19724 19852 19985 20239 20446 20601 20700 20901 21034 21063 21165 21334 21463 21501 21656 21839 21784 21745 21739 21790 21947 22099 22189 22366 22451 22645 22818 22946 22932 23039 23131 23161 23285 23523 23664 23738 23599 23462 23458 23435 23584 23651 23711 23708
20753 20907 21080 21141 21191 21125 21072 21002 21023 20953 20891 20946 20873 20870 20849 20774 20598 20587 20666 20600 20526 20417 20292 20173 19980 19857 19911 19852 19823 19707 19659 19428 19297 18998 18819 18565 18385 18208 17988 17894 17733 17674 17554 17500 17541 17402 17291 17218 17132 17066 16973 16937 16888 16824 16625 16531 16423 16477 16483 16495 16350 16295 16186 16083 15872 15834 15736 15841 15835 15857 15831 15808 15829 15701 15636 15571 15578 15600 15497 15436 15491 15362 15184 15137 14916 14915 14906 14822 14805 14727 14521 14359 14204 14195 14102 14106 13996 14003 13991 14074 14023 14058 14023 13892 13699 13674 13704 13612 13676 13451 13421 13265 13043 13172 13340 13368 13410 13304 13285 13118 13058 13038 12870 12930 12866 12851 12703 12741 12651 12757 12881 12851 12925 13071 13315 13395 13606 13709 13650 13708 13643 13600 13519 13477 13346 13522 13644 13814 14157 14274 14364 14432 14541 14678 14759 14871 15017 14982 15037 15086 15095 15242 15376 15552 15821 15826 15877 15998 16179 16084 16090 16147 16224 16131 16202 16201 16183 16171 16158 16167 16126 16167 16294 16413 16524 16570 16659 16821 17017 17021 16945 16943 17019 17064 17166 17414 17515 17643 17632 17956 18142 18213 18329 18393 18513 18715 18834 18846 18931 19085 19247 19420 19544 19696 19880 19938 20131 20411 20568 20641 20697 20854 20981 21102 21295 21390 21423 21524 21700 21736 21657 21756 21836 21905 22044 22211 22356 22483 22597 22703 22778 22875 23046 23109 23236 23399 23482 23605 23788 23669 23440 23517 23572 23594 23521 23616 23692
20773 20791 20922 21007 21109 21080 20984 20986 21062 20901 20763 20810 20750 20777 20801 20704 20588 20569 20657 20522 20462 20328 20281 20065 19894 19781 19781 19794 19826 19768 19699 19535 19333 19028 18829 18557 18321 18137 18061 17892 17785 17731 17566 17456 17381 17326 17224 17096 16989 17005 16943 16878 16856 16746 16722 16623 16553 16531 16489 16416 16379 16264 16242 16088 15922 15927 15890 15953 15947 15994 16039 16080 16045 15925 15796 15727 15673 15564 15550 15471 15520 15438 15244 15199 15041 14956 14872 14828 14732 14673 14592 14477 14238 14159 14134 14115 14041 14079 14067 14033 13985 13941 13950 13825 13749 13663 13642 13538 13511 13394 13328 13206 13042 13117 13232 13304 13416 13332 13298 13192 12987 12948 12944 12890 12913 12854 12765 12747 12708 12850 12919 12907 12882 13015 13255 13390 13633 13589 13661 13717 13658 13580 13557 13524 13402 13575 13659 13804 14047 14101 14211 14368 14484 14635 14699 14809 14959 14938 15028 15116 15095 15246 15405 15513 15749 15807 15835 15993 16111 16055 16039 16114 16136 16075 16006 16112 16138 16152 16115 16088 16087 16073 16109 16132 16261 16339 16492 16640 16858 16892 16816 16866 16790 16929 16986 17252 17454 17507 17525 17779 17969 18042 18209 18304 18357 18468 18686 18755 18855 19110 19269 19450 19612 19741 19787 19976 20143 20284 20464 20502 20542 20698 20955 21071 21247 21335 21395 21516 21641 21653 21647 21782 21803 21892 21883 22018 22281 22418 22544 22622 22660 22868 23050 23109 23225 23420 23527 23624 23799 23685 23505 23593 23583 23587 23519 23655 23670
20880 20887 20949 21027 21032 21079 20974 21019 21027 20880 20710 20705 20699 20760 20754 20780 20712 20571 20533 20401 20238 20178 20134 20029 19856 19841 19865 19738 19743 19702 19647 19509 19390 19071 18876 18683 18347 18225 18013 17847 17746 17693 17603 17436 17405 17253 17228 17052 16918 16922 16812 16756 16715 16673 16748 16624 16522 16508 16462 16409 16383 16336 16276 16185 15976 16017 15914 15978 15977 16128 16128 16142 16068 15971 15935 15876 15828 15656 15600 15597 15536 15483 15426 15322 15128 14987 14917 14840 14776 14676 14504 14442 14338 14226 14208 14055 13994 14055 14089 13946 13907 13945 13887 13773 13752 13634 13488 13492 13493 13456 13322 13122 12993 13095 13164 13228 13337 13267 13194 13206 13064 12890 12829 12844 12849 12813 12814 12773 12878 12910 12915 12928 12897 13092 13199 13405 13561 13515 13513 13541 13567 13538 13524 13511 13410 13560 13701 13832 13997 14161 14298 14359 14445 14589 14713 14744 14910 14925 14973 15094 15100 15290 15412 15603 15713 15754 15801 15922 16056 15992 16026 15951 15992 16006 15958 16067 16014 15989 15958 15936 15990 16012 16107 16150 16113 16213 16467 16528 16711 16764 16733 16698 16700 16791 16862 17050 17293 17366 17384 17647 17821 17866 18075 18059 18159 18325 18457 18594 18714 18927 19176 19387 19572 19665 19752 19982 20114 20143 20274 20373 20418 20662 20850 21038 21119 21214 21306 21442 21536 21584 21611 21650 21641 21768 21866 21986 22147 22327 22498 22587 22687 22889 23031 23066 23121 23357 23387 23613 23747 23666 23537 23557 23529 23576 23587 23701 23750
20927 20924 21049 20990 20995 21004 20930 20956 20872 20803 20737 20680 20717 20703 20793 20709 20724 20628 20526 20312 20118 20066 20092 19977 19845 19849 19895 19796 19703 19656 19624 19520 19344 19143 18938 18723 18426 18261 18089 17827 17679 17560 17522 17426 17423 17312 17169 16990 16745 16743 16803 16746 16644 16634 16698 16707 16590 16525 16388 16370 16345 16287 16351 16184 16133 16156 16065 16124 16118 16223 16254 16183 16174 16074 15974 15968 15912 15749 15622 15604 15499 15490 15482 15445 15315 15129 15051 14965 14888 14754 14534 14477 14400 14241 14161 14036 13955 13933 14039 13909 13887 13848 13802 13688 13632 13547 13433 13376 13425 13369 13227 13115 13005 13014 13012 13083 13233 13215 13203 13166 13045 12942 12830 12827 12786 12790 12769 12874 12932 12894 12841 12930 12974 13088 13153 13230 13429 13516 13482 13481 13496 13432 13393 13389 13457 13527 13707 13747 13829 14089 14264 14417 14451 14579 14624 14715 14839 14911 14883 15032 15104 15331 15489 15609 15625 15630 15738 15781 15903 15888 15963 15927 15893 15953 15893 15979 15978 15922 15757 15775 15778 15924 16017 16033 16045 16188 16369 16489 16488 16506 16565 16674 16690 16727 16852 16954 17171 17185 17326 17570 17725 17771 17817 17957 18086 18224 18252 18378 18597 18899 19192 19372 19544 19696 19738 19909 19986 20014 20101 20272 20347 20547 20763 20942 21042 21056 21125 21326 21447 21469 21620 21570 21602 21676 21827 21946 22076 22279 22387 22451 22626 22794 22899 23046 23145 23284 23347 23541 23610 23559 23456 23502 23559 23520 23583 23664 23827
20999 20933 21031 20954 21008 21014 20966 20894 20912 20868 20762 20789 20707 20755 20863 20787 20738 20611 20566 20409 20236 20193 20153 20004 19946 19874 19860 19772 19645 19615 19577 19483 19345 19234 19081 18872 18596 18304 18068 17907 17663 17624 17561 17464 17377 17267 17194 17043 16906 16785 16659 16644 16632 16519 16623 16478 16455 16330 16339 16352 16234 16215 16239 16171 16066 16000 16000 16147 16163 16183 16116 16142 16046 16024 15948 15831 15741 15627 15553 15491 15496 15441 15458 15405 15374 15263 15046 14984 14964 14823 14668 14586 14373 14333 14252 14117 14102 14071 14127 14094 13966 13967 13927 13839 13789 13701 13628 13477 13433 13364 13352 13257 13175 13227 13144 13241 13299 13221 13138 13078 13109 12965 12871 12858 12905 12885 12869 12975 12939 12921 12965 12994 13011 13099 13180 13337 13480 13415 13433 13414 13453 13402 13406 13417 13549 13644 13701 13768 13934 14153 14392 14421 14435 14539 14545 14650 14631 14817 14887 14990 15066 15310 15446 15494 15560 15588 15589 15701 15936 15872 15881 15907 15943 15905 15842 15810 15876 15755 15725 15735 15798 15950 16052 16097 16143 16289 16430 16512 16482 16566 16629 16700 16680 16867 17043 17111 17362 17432 17538 17704 17952 17918 17974 18079 18269 18261 18281 18444 18480 18821 19131 19317 19545 19657 19775 19926 19934 20032 20011 20177 20229 20506 20660 20806 21012 20975 21100 21121 21307 21332 21467 21406 21464 21635 21775 21874 22054 22254 22384 22394 22565 22766 22877 22957 23086 23176 23314 23490 23612 23601 23528 23598 23640 23640 23694 23751 23878
