20777 20643 20616 20423 20253 20000 19851 19730 19545 19352 19282 19230 19272 19162 19062 19003 18977 19057 19029 18961 18943 18969 18990 19145 19225 19249 19371 19464 19642 19735 19872 19976 19995 20033 20107 20227 20357 20345 20290 20255 20313 20281 20338 20360 20369 20322 20177 20136 19996 20072 20085 20196 20400 20488 20644 20782 20946 20948 20873 20940 20923 20956 21105 21090 21186 21202 21222 21120 21005 21000 20903 20900 20848 20741 20612 20381 20162 19996 19851 19524 19292 19406 19459 19547 19617 19593 19598 19642 19688 19654 19654 19742 19748 19660 19566 19507 19353 19314 19334 19412 19563 19493 19367 19371 19270 19300 19346 19356 19281 19256 19296 19371 19367 19500 19600 19575 19676 19845 19929 20022 20095 20247 20395 20604 20694 20769 20795 20800 20933 20913 20946 20833 20798 20814 20734 20782 20721 20655 20592 20368 20268 20261 20234 20230 20122 20104 20175 20342 20393 20389 20362 20427 20502 20576 20692 20730 20663 20581 20604 20498 20435 20479 20650 20729 20854 20873 20915 20964 21081 21100 21171 21119 21030 21136 21339 21373 21405 21446 21452 21625 21718 21897 22072 22164 22373 22317 22381 22397 22477 22416 22466 22540 22700 22710 22774 22716 22649 22593 22538 22422 22309 22289 22200 22164 22081 22029 21909 21902 21944 22065 22155 22198 22262 22315 22309 22457 22497 22518 22653 22674 22693 22697 22767 22767 22651 22363 22191 21957 21792 21747 21631 21499 21303 21177 21064 21005 21030 20920 20802 20818 20774 20868 20933 20860 20868 20770 20587 20602 20561 20391 20130 20063 19940 19793 19710 19629 19624
20686 20561 20451 20360 20224 20098 19899 19698 19540 19294 19174 19257 19169 18999 18882 18947 18920 18971 18965 18924 18878 18975 19082 19129 19238 19355 19409 19569 19690 19765 19838 19913 19974 20039 20064 20177 20279 20289 20207 20246 20233 20326 20335 20323 20375 20374 20264 20169 20135 20110 20234 20280 20419 20579 20660 20808 20844 20949 20980 20944 20923 20898 20999 21042 21173 21197 21189 21152 21021 21026 20945 21016 20949 20725 20634 20411 20117 19956 19826 19612 19387 19450 19445 19563 19699 19750 19720 19778 19766 19697 19623 19611 19648 19584 19554 19353 19247 19278 19224 19335 19485 19454 19478 19345 19264 19268 19286 19314 19307 19272 19330 19367 19347 19408 19518 19587 19676 19790 19887 19914 20014 20087 20249 20545 20735 20705 20687 20728 20728 20796 20780 20650 20666 20675 20628 20630 20651 20546 20501 20303 20217 20187 20063 19946 19919 20044 20103 20189 20360 20335 20275 20413 20556 20645 20647 20601 20561 20481 20565 20458 20503 20446 20531 20603 20726 20812 20829 20941 21031 21067 21162 21089 20986 21027 21189 21193 21314 21278 21302 21477 21725 21820 21900 22004 22167 22220 22251 22230 22291 22280 22259 22505 22582 22704 22747 22692 22594 22542 22507 22503 22395 22360 22277 22235 22154 22177 22067 22075 21978 22061 22107 22149 22303 22265 22401 22528 22547 22575 22541 22561 22570 22552 22544 22513 22515 22298 22121 21888 21784 21649 21590 21416 21249 21237 21205 21087 21100 21030 20879 20852 20867 20881 20945 20805 20711 20713 20566 20605 20497 20437 20219 20177 20119 19908 19815 19830 19728
20564 20497 20370 20321 20299 20108 19962 19806 19566 19342 19162 19208 19152 18962 18796 18751 18815 18812 18827 18836 18744 18915 19055 19066 19129 19315 19436 19563 19665 19722 19861 19899 19942 19916 19947 20047 20113 20098 20061 20127 20241 20360 20373 20436 20387 20422 20372 20279 20174 20256 20346 20395 20478 20548 20665 20800 20857 20911 20997 20979 20955 20970 20972 21083 21240 21097 21052 21064 21066 21064 21093 21056 20974 20739 20553 20319 20083 19899 19726 19550 19472 19530 19512 19627 19714 19787 19825 19851 19928 19824 19696 19615 19643 19547 19423 19282 19111 19175 19181 19314 19437 19443 19470 19350 19303 19314 19326 19358 19350 19364 19326 19288 19376 19395 19454 19463 19566 19699 19743 19883 20025 20080 20204 20491 20657 20543 20550 20529 20604 20564 20521 20477 20481 20406 20424 20405 20483 20434 20303 20200 20090 19988 19990 19823 19781 19875 19938 20127 20309 20281 20307 20469 20589 20579 20640 20525 20514 20471 20470 20450 20475 20514 20515 20615 20639 20678 20738 20856 21044 21068 21076 21017 21064 21005 21024 21051 21118 21207 21250 21456 21622 21771 21805 21867 22052 22069 22110 22138 22043 22073 22179 22397 22501 22548 22634 22578 22607 22501 22449 22499 22451 22430 22446 22439 22321 22222 22196 22194 22131 22100 22094 22230 22268 22279 22370 22466 22614 22559 22502 22494 22493 22470 22429 22430 22478 22246 22087 21946 21850 21658 21579 21397 21304 21246 21229 21218 21213 21059 21022 20911 20838 20834 20890 20720 20658 20588 20620 20597 20487 20500 20433 20284 20222 20113 19974 19932 19808
20485 20345 20304 20307 20165 19990 19882 19675 19522 19327 19185 19043 19048 18906 18711 18680 18693 18638 18761 18708 18675 18839 19020 19133 19185 19332 19398 19498 19639 19682 19774 19757 19799 19763 19824 19890 20040 20005 20034 20128 20203 20249 20289 20326 20393 20408 20370 20219 20220 20377 20421 20490 20609 20601 20692 20765 20726 20790 20913 20849 20920 20943 20957 21032 21119 21068 21048 21023 21088 21074 21017 20983 20929 20746 20545 20203 19973 19872 19795 19628 19550 19559 19569 19594 19617 19720 19877 19884 19956 19806 19673 19706 19692 19531 19431 19281 19140 19165 19069 19209 19288 19309 19405 19445 19381 19388 19398 19390 19405 19374 19301 19257 19233 19327 19436 19503 19610 19678 19722 19907 19984 20050 20156 20423 20495 20406 20389 20481 20494 20539 20414 20357 20435 20324 20298 20395 20370 20205 20161 20056 19894 19867 19889 19804 19731 19812 19925 19995 20235 20263 20258 20470 20598 20525 20504 20376 20401 20321 20353 20409 20404 20389 20506 20576 20589 20696 20699 20850 20943 21005 20960 20944 20917 20961 20992 21011 21005 21144 21242 21307 21454 21618 21638 21845 21988 21917 21973 21934 21876 22011 22111 22313 22424 22401 22523 22489 22560 22479 22403 22443 22464 22538 22451 22457 22276 22343 22263 22365 22319 22234 22156 22205 22238 22330 22414 22538 22588 22549 22528 22423 22420 22423 22363 22305 22331 22251 22104 21977 21890 21706 21601 21403 21257 21254 21282 21262 21216 21100 21011 20875 20840 20842 20830 20730 20570 20566 20526 20544 20544 20556 20465 20421 20299 20121 20024 19964 19828
20444 20284 20202 20204 20142 20036 19893 19706 19556 19366 19144 18958 18851 18729 18576 18553 18540 18524 18586 18652 18671 18869 18970 19026 19199 19245 19416 19465 19581 19637 19583 19720 19743 19721 19782 19904 20056 20088 20029 20128 20219 20252 20267 20280 20274 20215 20283 20235 20298 20471 20551 20596 20623 20696 20672 20636 20553 20626 20796 20747 20802 20881 20943 21065 21101 21093 20995 21012 21051 21038 21000 20980 20915 20727 20542 20213 19958 19919 19814 19676 19648 19572 19500 19503 19609 19660 19832 19905 20039 19846 19778 19812 19750 19663 19533 19307 19121 19119 19080 19103 19186 19284 19289 19395 19535 19424 19391 19450 19484 19408 19383 19311 19210 19293 19368 19526 19558 19693 19794 19795 19819 19944 20184 20332 20382 20341 20338 20449 20500 20516 20427 20338 20266 20315 20299 20378 20355 20102 19938 19764 19673 19740 19732 19703 19588 19724 19798 19928 20082 20232 20312 20341 20483 20380 20288 20273 20211 20315 20354 20303 20362 20358 20482 20529 20537 20656 20679 20722 20844 20836 20811 20856 20866 20896 20969 20920 20914 20993 21147 21212 21327 21420 21573 21727 21874 21778 21720 21754 21743 21851 22060 22126 22259 22305 22319 22412 22399 22367 22447 22516 22592 22607 22510 22445 22308 22374 22445 22470 22482 22366 22272 22220 22296 22406 22563 22638 22649 22626 22481 22388 22423 22372 22266 22292 22230 22187 22172 22033 21864 21650 21550 21357 21229 21326 21312 21336 21276 21159 20919 20767 20732 20697 20673 20605 20518 20569 20515 20537 20625 20520 20443 20426 20286 20128 20057 20031 19930
20444 20241 20167 20223 20158 19950 19917 19722 19659 19395 19218 19099 18896 18848 18675 18620 18596 18623 18712 18785 18736 18855 18981 19075 19209 19334 19392 19439 19523 19594 19600 19574 19609 19640 19640 19701 19799 19870 19965 20018 20184 20154 20122 20248 20252 20318 20301 20308 20416 20469 20653 20639 20693 20660 20686 20654 20549 20654 20859 20767 20823 20872 20930 21050 21063 21075 21099 21103 21060 20997 20963 20945 20937 20680 20494 20218 19939 19842 19791 19653 19642 19566 19649 19741 19730 19800 19908 19904 20038 19908 19742 19756 19761 19743 19593 19442 19206 19186 19253 19188 19250 19285 19417 19456 19562 19443 19387 19436 19398 19333 19347 19249 19193 19327 19401 19434 19495 19700 19771 19781 19847 20005 20216 20260 20322 20374 20345 20457 20535 20408 20393 20264 20293 20239 20189 20100 20128 19977 19847 19666 19587 19525 19506 19580 19519 19683 19769 19837 19902 20058 20187 20313 20369 20356 20302 20293 20170 20281 20340 20317 20337 20303 20458 20410 20482 20592 20590 20614 20703 20798 20850 20818 20863 20938 20907 20946 20897 20983 21098 21144 21178 21282 21484 21561 21680 21662 21578 21537 21586 21727 21865 22088 22198 22290 22374 22414 22461 22481 22538 22610 22621 22569 22505 22418 22446 22512 22536 22586 22601 22565 22405 22378 22425 22501 22541 22581 22686 22537 22417 22398 22429 22450 22367 22254 22225 22197 22133 21920 21873 21674 21606 21425 21305 21324 21286 21295 21214 21015 20873 20763 20755 20700 20637 20636 20545 20584 20498 20507 20639 20518 20385 20258 20164 20074 20101 19947 19897
20369 20222 20123 20130 20064 19938 19901 19783 19647 19418 19285 19170 18940 18853 18710 18726 18636 18694 18749 18798 18869 18912 19083 19145 19312 19289 19304 19394 19399 19480 19496 19442 19500 19438 19468 19599 19666 19722 19835 19926 20088 20059 20092 20230 20328 20329 20427 20465 20549 20574 20643 20676 20805 20742 20637 20651 20576 20708 20832 20831 20758 20857 20912 20960 21104 21156 21138 21148 21093 20973 20932 20898 20953 20752 20469 20214 19945 19866 19838 19737 19586 19632 19762 19854 19832 19934 19971 19993 20064 19923 19805 19881 19897 19756 19620 19465 19271 19245 19318 19340 19351 19424 19551 19641 19677 19577 19403 19367 19360 19342 19437 19303 19253 19335 19396 19433 19523 19676 19809 19804 19911 20088 20216 20233 20334 20308 20316 20466 20542 20430 20319 20235 20267 20081 19973 19930 19910 19824 19778 19637 19422 19428 19406 19436 19545 19604 19727 19685 19733 19872 19968 20104 20230 20178 20237 20239 20161 20263 20323 20329 20236 20257 20347 20421 20488 20526 20593 20620 20670 20734 20820 20892 20879 20838 20865 20843 20877 20961 20948 21092 21117 21204 21371 21408 21462 21431 21348 21383 21419 21507 21675 21920 22042 22222 22319 22342 22466 22563 22555 22541 22650 22549 22550 22502 22544 22639 22658 22761 22754 22747 22620 22519 22517 22487 22541 22650 22715 22533 22468 22424 22446 22420 22395 22378 22299 22142 22019 21865 21826 21762 21672 21551 21315 21231 21184 21235 21197 21063 20810 20750 20657 20560 20525 20533 20570 20571 20588 20540 20529 20341 20247 20215 20165 20072 20082 19998 19888
20382 20212 20126 20084 19957 19906 19706 19689 19560 19406 19270 19112 19057 18901 18666 18600 18537 18660 18636 18746 18919 18997 19157 19173 19292 19335 19333 19432 19419 19359 19370 19404 19470 19477 19423 19485 19619 19590 19690 19880 19908 19986 20014 20093 20275 20385 20418 20425 20506 20602 20629 20710 20789 20679 20599 20568 20566 20684 20800 20796 20713 20941 21038 21111 21131 21129 21162 21048 20997 21012 20981 20944 20935 20720 20490 20193 19971 19873 19904 19764 19571 19719 19811 19887 19951 20002 20004 19947 20060 19941 19842 19799 19864 19665 19610 19496 19264 19295 19296 19322 19455 19535 19560 19624 19625 19620 19461 19394 19416 19412 19390 19323 19179 19219 19395 19446 19516 19699 19804 19785 19866 20086 20136 20162 20241 20361 20450 20486 20516 20377 20264 20159 20161 20000 19891 19784 19750 19660 19565 19568 19356 19400 19407 19501 19509 19582 19631 19670 19686 19807 19963 20137 20215 20201 20242 20168 20183 20190 20330 20296 20132 20152 20279 20381 20387 20396 20471 20458 20509 20550 20662 20774 20810 20836 20762 20835 20837 20804 20815 20813 20910 21020 21130 21126 21131 21116 21181 21298 21385 21443 21542 21837 22074 22231 22241 22326 22400 22513 22599 22652 22806 22790 22839 22792 22774 22779 22828 22862 22822 22815 22732 22638 22567 22555 22621 22684 22739 22586 22541 22526 22544 22486 22395 22260 22268 22140 21936 21788 21758 21628 21583 21527 21322 21259 21236 21286 21198 21057 20917 20785 20694 20642 20597 20486 20454 20493 20388 20470 20395 20242 20187 20073 19994 20033 19964 19923 19858
20357 20259 20237 20064 19916 19805 19632 19631 19537 19410 19315 19184 19051 18866 18668 18612 18523 18570 18648 18740 18901 19010 19233 19245 19320 19291 19388 19423 19335 19297 19325 19269 19321 19357 19414 19525 19529 19558 19674 19762 19855 19840 19937 20064 20173 20334 20406 20442 20571 20539 20591 20729 20767 20670 20575 20531 20585 20673 20738 20713 20777 20993 21095 21189 21212 21242 21167 21026 20970 20941 20957 20921 20831 20566 20395 20184 20006 19967 19863 19762 19632 19810 19933 20023 20023 19985 20007 19933 19976 19857 19832 19861 19791 19654 19533 19402 19386 19406 19377 19391 19523 19512 19542 19586 19615 19661 19619 19588 19435 19383 19246 19197 19083 19169 19296 19434 19563 19603 19724 19825 19935 20025 20095 20161 20234 20417 20523 20533 20569 20344 20226 20090 20057 20008 19855 19732 19568 19497 19479 19492 19388 19406 19364 19444 19457 19490 19545 19497 19570 19691 19850 20060 20189 20274 20282 20241 20201 20199 20240 20150 20061 20044 20133 20240 20405 20411 20389 20433 20472 20542 20584 20662 20638 20735 20712 20779 20722 20682 20631 20656 20766 20834 20882 20903 20925 20949 21060 21158 21249 21415 21538 21832 22066 22140 22222 22346 22399 22590 22724 22804 22957 23009 23003 22999 22927 22859 22880 22918 22984 22961 22916 22753 22642 22654 22706 22741 22746 22759 22685 22615 22608 22468 22271 22254 22180 22073 21868 21792 21622 21573 21580 21473 21373 21394 21291 21259 21273 21083 20931 20863 20797 20700 20582 20509 20420 20393 20276 20362 20354 20288 20136 20002 19890 19894 19874 19845 19896
20361 20239 20116 19981 19837 19729 19694 19563 19557 19455 19386 19173 19084 18949 18724 18643 18629 18681 18694 18870 18925 18966 19083 19114 19168 19198 19170 19294 19318 19320 19264 19178 19176 19208 19329 19452 19434 19479 19609 19607 19655 19736 19827 19928 20005 20093 20217 20281 20481 20348 20416 20490 20550 20508 20429 20443 20400 20570 20640 20739 20842 20849 20995 21119 21092 21106 21130 20996 20947 20918 20847 20770 20782 20636 20469 20199 19984 19990 19859 19803 19633 19756 19825 19898 20048 20054 20064 19972 19962 19829 19814 19798 19758 19682 19587 19476 19380 19323 19394 19419 19532 19627 19599 19639 19707 19580 19580 19492 19449 19363 19238 19235 19141 19258 19338 19505 19591 19688 19681 19740 19869 20006 20112 20199 20213 20385 20466 20506 20570 20354 20211 20209 20153 20066 19826 19705 19569 19557 19623 19528 19493 19463 19459 19490 19457 19616 19631 19672 19604 19752 19989 20042 20133 20219 20236 20265 20205 20297 20356 20297 20158 20178 20293 20332 20520 20494 20528 20606 20583 20728 20779 20738 20722 20823 20829 20748 20672 20659 20689 20701 20826 20892 20867 20987 21052 21176 21272 21338 21367 21523 21677 21878 21996 22101 22243 22253 22349 22501 22648 22825 22960 22939 22969 22842 22825 22829 22814 22868 22896 22866 22833 22712 22531 22527 22609 22621 22708 22695 22583 22505 22468 22342 22279 22199 22030 21942 21716 21774 21678 21526 21409 21391 21291 21299 21293 21179 21156 20968 20985 20835 20715 20683 20600 20544 20355 20349 20296 20376 20309 20223 20058 20016 19931 19848 19868 19911 19883
20240 20031 19901 19859 19763 19682 19679 19609 19467 19447 19337 19120 18993 18947 18900 18752 18625 18627 18734 18909 18973 18959 18930 19000 19026 19046 19079 19223 19330 19301 19156 19043 19052 19146 19336 19337 19382 19429 19586 19515 19534 19752 19846 19863 19927 19978 20082 20156 20280 20182 20154 20219 20292 20340 20268 20315 20298 20361 20499 20657 20788 20744 20827 20980 21024 21013 20969 20952 20922 20920 20840 20729 20744 20570 20507 20271 20062 20027 19880 19792 19748 19817 19772 19811 19960 19972 20059 20083 20061 19933 19793 19812 19842 19754 19594 19423 19356 19320 19407 19475 19598 19677 19664 19726 19745 19602 19586 19525 19512 19419 19258 19265 19279 19404 19415 19532 19609 19637 19691 19766 19924 19954 20017 20111 20172 20289 20403 20498 20575 20384 20247 20209 20131 20050 19901 19725 19637 19610 19658 19718 19682 19697 19620 19551 19496 19642 19746 19710 19691 19912 20029 20147 20159 20185 20093 20142 20222 20308 20404 20409 20371 20412 20463 20450 20535 20596 20735 20722 20773 20875 20888 20829 20774 20777 20827 20723 20706 20733 20658 20711 20810 20902 20883 20951 21143 21282 21401 21457 21446 21580 21782 21913 22017 22057 22202 22295 22358 22463 22623 22803 23053 22950 22878 22812 22826 22806 22861 22862 22753 22785 22715 22566 22526 22501 22564 22532 22611 22660 22586 22467 22301 22260 22221 22092 21960 21886 21686 21668 21631 21493 21293 21243 21203 21213 21170 21089 20919 20871 20931 20856 20750 20669 20622 20557 20387 20381 20301 20302 20250 20091 19996 19935 19916 19866 19810 19895 19889
20122 19883 19691 19641 19633 19597 19651 19501 19482 19379 19220 19101 19033 18970 18987 18860 18696 18738 18799 18897 19000 18949 18860 18850 18958 18963 19094 19217 19203 19138 19082 19068 19069 19180 19229 19194 19272 19392 19425 19450 19438 19573 19662 19684 19827 19812 19981 20006 20074 20001 20017 19995 20115 20171 20161 20141 20222 20369 20461 20563 20710 20706 20782 20876 21012 21028 20995 20970 21004 20921 20857 20752 20803 20665 20536 20340 20167 20119 19925 19886 19889 19890 19763 19860 19878 19990 20104 20068 20046 19890 19769 19853 19799 19699 19589 19493 19450 19383 19471 19581 19778 19833 19834 19887 19832 19683 19579 19556 19536 19392 19252 19299 19334 19369 19458 19483 19547 19553 19683 19716 19876 19933 19894 20076 20161 20261 20308 20459 20499 20351 20370 20249 20288 20116 20022 19866 19714 19753 19725 19691 19716 19794 19781 19621 19504 19623 19768 19685 19742 19902 20095 20085 20105 20142 20095 20152 20276 20428 20494 20469 20472 20411 20440 20444 20544 20581 20733 20859 20843 20939 20937 20900 20875 20848 20809 20699 20741 20829 20829 20786 20849 20935 20972 21110 21324 21417 21444 21445 21525 21694 21826 21856 21970 22044 22193 22264 22332 22526 22669 22788 23039 22952 22867 22813 22772 22729 22744 22678 22628 22555 22615 22489 22485 22446 22452 22418 22521 22575 22457 22316 22236 22140 22024 21949 21755 21789 21625 21533 21524 21407 21189 21140 21018 21131 21116 21012 20869 20870 20828 20766 20693 20571 20534 20524 20448 20321 20304 20198 20186 20077 19999 19917 19924 19775 19766 19730 19749
19910 19693 19578 19510 19470 19526 19528 19446 19393 19314 19149 19106 19132 19080 18994 18891 18693 18876 18950 18992 19001 18967 18873 18792 18838 18930 19068 19123 19099 19034 18987 18971 18983 19072 19079 19125 19206 19302 19376 19307 19365 19450 19566 19600 19655 19680 19833 19921 19887 19798 19806 19881 19911 19924 20056 20090 20068 20244 20390 20586 20704 20679 20718 20770 20935 21008 21003 21030 21000 20923 20858 20846 20804 20639 20537 20406 20228 20160 20065 20107 20024 19922 19862 19816 19844 19899 20030 19964 19980 19874 19865 19822 19693 19705 19679 19518 19465 19544 19627 19761 19866 19933 19954 19921 19804 19680 19628 19494 19471 19460 19339 19400 19384 19421 19481 19449 19526 19559 19619 19696 19774 19847 19898 20018 20093 20251 20325 20357 20450 20385 20387 20364 20343 20192 20170 20010 19896 19881 19781 19767 19846 19817 19823 19685 19629 19659 19809 19769 19854 19995 20124 20123 20173 20210 20176 20294 20431 20444 20492 20564 20512 20474 20502 20564 20506 20650 20806 20905 20942 21060 21115 21142 21086 20977 20913 20778 20735 20785 20885 20944 20991 21087 21177 21406 21583 21494 21486 21512 21644 21730 21774 21791 21852 22069 22173 22191 22274 22434 22651 22836 22939 22954 22951 22795 22756 22704 22544 22407 22387 22354 22391 22419 22326 22397 22362 22355 22364 22410 22330 22200 22112 22037 21874 21722 21662 21685 21641 21547 21425 21190 21062 21024 20955 20984 20971 20912 20749 20771 20765 20740 20590 20505 20420 20425 20485 20399 20392 20215 20075 19961 19893 19846 19916 19793 19726 19661 19669
19770 19647 19432 19484 19418 19460 19464 19388 19251 19244 19223 19159 19103 18940 18895 18771 18580 18758 18846 18940 18962 18911 18890 18739 18740 18850 18977 18943 18953 18970 18965 18836 18913 18921 19001 18953 19044 19215 19245 19297 19412 19428 19524 19513 19470 19518 19572 19691 19767 19751 19754 19823 19830 19851 19949 19946 20073 20222 20301 20447 20510 20570 20643 20698 20802 20819 20815 20866 20857 20907 20900 20827 20890 20801 20680 20529 20410 20409 20292 20271 20307 20187 20003 19995 19955 20069 20094 20042 20117 19938 19836 19751 19734 19677 19783 19557 19485 19583 19696 19768 19858 19914 20020 19978 19864 19773 19727 19655 19568 19608 19497 19456 19406 19470 19595 19496 19522 19599 19667 19801 19738 19765 19834 19963 20063 20164 20337 20340 20354 20367 20290 20237 20336 20233 20105 20019 19858 19872 19798 19714 19670 19671 19768 19692 19699 19684 19778 19908 19938 20050 20173 20232 20204 20288 20286 20363 20362 20369 20435 20529 20553 20557 20551 20586 20512 20714 20750 20908 21030 21125 21164 21120 21045 20980 21000 20878 20889 20917 20972 21044 21043 21231 21399 21571 21665 21640 21594 21623 21668 21843 21857 21863 21997 22073 22221 22271 22335 22399 22551 22732 22806 22775 22800 22624 22599 22458 22346 22341 22281 22219 22290 22172 22142 22244 22274 22120 22104 22081 22096 22127 22009 21974 21846 21730 21611 21626 21608 21497 21325 21227 21096 21008 20849 20800 20806 20772 20738 20673 20697 20611 20469 20391 20409 20331 20402 20299 20265 20173 19912 19911 19795 19806 19747 19671 19592 19585 19483
19678 19520 19383 19409 19406 19369 19295 19207 19233 19279 19225 19124 19143 18870 18707 18612 18533 18642 18823 18846 18808 18819 18783 18659 18663 18818 18869 18850 18727 18842 18842 18733 18722 18786 18907 18866 18891 19027 19184 19347 19397 19405 19470 19336 19272 19307 19417 19536 19630 19602 19608 19716 19724 19727 19779 19881 20102 20155 20328 20430 20421 20481 20616 20622 20566 20629 20747 20737 20799 20885 20948 20910 20997 20856 20789 20661 20638 20605 20568 20502 20480 20375 20233 20247 20153 20154 20238 20245 20137 20055 19859 19820 19707 19728 19763 19690 19495 19654 19712 19810 19863 19965 20064 20052 20015 19828 19709 19630 19562 19667 19683 19586 19537 19648 19644 19635 19625 19693 19838 19869 19790 19812 19842 20010 20055 20175 20231 20230 20313 20245 20261 20185 20238 20133 19936 19880 19773 19810 19775 19729 19567 19614 19620 19660 19651 19661 19738 19912 20019 20139 20142 20248 20299 20281 20304 20342 20371 20368 20484 20486 20559 20670 20719 20707 20612 20692 20749 20879 21010 21035 21175 21114 21122 21022 20990 20908 20941 20939 20949 21128 21190 21374 21504 21640 21650 21619 21639 21744 21789 21865 21966 22050 22027 22227 22302 22367 22371 22436 22566 22670 22655 22674 22638 22482 22364 22267 22264 22153 22159 22192 22247 22062 22005 22032 22086 21961 21931 21969 21904 21997 22011 21894 21830 21715 21665 21516 21462 21374 21203 21105 21023 20968 20791 20791 20695 20710 20608 20644 20666 20511 20476 20401 20369 20243 20205 20214 20159 20048 19838 19784 19697 19657 19669 19543 19527 19415 19323
19615 19402 19295 19335 19209 19174 19197 19066 19093 19209 19160 19038 19074 18923 18684 18577 18512 18620 18682 18758 18798 18800 18758 18631 18625 18696 18734 18693 18581 18579 18684 18586 18525 18660 18815 18845 18857 18956 19076 19210 19431 19325 19388 19280 19139 19247 19380 19419 19475 19432 19441 19511 19480 19640 19765 19925 20011 20002 20129 20183 20317 20355 20517 20470 20531 20594 20642 20676 20659 20831 20883 20995 21131 20983 20952 20875 20846 20752 20688 20724 20671 20546 20349 20346 20244 20194 20208 20222 20078 20004 19915 19918 19791 19779 19801 19682 19591 19718 19857 19849 19941 20082 20150 19991 19980 19822 19680 19647 19621 19707 19755 19739 19609 19669 19624 19689 19718 19743 19793 19801 19846 19956 19934 20080 20113 20158 20175 20197 20297 20202 20180 20183 20142 19953 19869 19891 19769 19768 19657 19577 19509 19512 19571 19673 19717 19835 19859 20044 20174 20204 20351 20354 20461 20363 20310 20414 20384 20425 20578 20505 20511 20672 20778 20765 20747 20759 20802 20871 21006 21118 21101 21158 21189 21167 21122 21039 21137 21063 21024 21178 21342 21442 21596 21726 21753 21786 21797 21815 21920 21979 21899 22009 22041 22167 22186 22329 22279 22425 22614 22607 22647 22534 22491 22369 22293 22187 22161 22078 22198 22162 22076 21993 21973 21822 21796 21753 21697 21813 21824 21832 21933 21851 21709 21607 21625 21517 21381 21318 21162 21092 20986 20791 20615 20674 20667 20689 20593 20580 20628 20440 20406 20389 20298 20070 20010 20044 19974 19947 19839 19662 19564 19553 19483 19389 19318 19223 19150
19581 19417 19301 19207 19135 19077 19064 19007 19069 19137 19088 19044 18967 18833 18660 18672 18592 18536 18557 18604 18718 18705 18697 18706 18697 18641 18579 18581 18468 18452 18560 18469 18399 18491 18675 18657 18712 18864 19005 19196 19378 19274 19246 19156 19126 19172 19228 19272 19274 19205 19206 19275 19355 19471 19710 19821 19900 19911 19968 20053 20206 20319 20402 20372 20395 20447 20493 20553 20532 20749 20918 21074 21177 21078 21084 21019 21007 20962 20824 20844 20773 20653 20558 20396 20231 20212 20209 20107 20095 20059 19940 19902 19761 19778 19764 19691 19656 19827 19947 19957 20065 20144 20154 20033 20016 19865 19737 19642 19672 19740 19824 19776 19744 19725 19652 19680 19787 19843 19823 19905 19891 20042 20072 20188 20219 20145 20196 20272 20322 20145 20065 20061 19980 19884 19897 19879 19751 19671 19622 19611 19513 19606 19634 19739 19727 19860 19987 20146 20236 20309 20490 20557 20537 20414 20396 20400 20459 20589 20609 20595 20557 20646 20759 20772 20830 20870 20939 20989 20986 21089 21106 21108 21147 21201 21152 21148 21242 21185 21213 21279 21402 21552 21662 21794 21896 21922 21900 21997 22133 22040 21937 21909 21989 22141 22184 22235 22262 22378 22554 22607 22592 22449 22226 22108 22110 22093 22067 22042 22112 22061 21926 21950 21923 21714 21632 21603 21536 21638 21645 21744 21738 21677 21615 21532 21474 21405 21413 21310 21145 20964 20827 20661 20452 20455 20515 20608 20579 20478 20467 20321 20288 20250 20108 19977 19901 19760 19737 19769 19744 19556 19457 19309 19265 19201 19214 19086 19020
19512 19395 19204 19197 19099 18979 19016 18868 18882 18871 18901 18886 18830 18634 18527 18584 18562 18441 18459 18571 18578 18638 18628 18652 18575 18476 18494 18509 18490 18430 18489 18328 18164 18354 18460 18572 18623 18790 18865 18970 19139 19127 19034 19050 19091 19123 19166 19142 19186 19178 19225 19323 19367 19536 19719 19715 19819 19900 19946 20009 20133 20266 20306 20311 20430 20457 20503 20551 20540 20679 20860 21070 21128 21165 21156 21049 21048 21065 20942 20901 20826 20666 20590 20375 20287 20185 20161 20101 20055 20032 19951 19907 19804 19843 19945 19900 19867 19976 20036 20094 20093 20082 20128 20130 20132 20063 19996 19930 19936 20024 19975 19942 19995 19976 19832 19891 19851 19833 19864 19893 19910 19979 20048 20187 20247 20156 20162 20185 20300 20208 19980 19922 19922 19885 19923 19860 19795 19787 19728 19596 19561 19640 19599 19655 19703 19845 19983 20024 20091 20225 20362 20461 20547 20458 20525 20528 20552 20658 20644 20670 20650 20712 20747 20786 20946 20988 20953 21030 20984 21127 21155 21111 21142 21309 21343 21292 21365 21331 21232 21376 21492 21623 21751 21900 21931 21961 21947 21974 22047 21898 21813 21970 22014 22128 22151 22282 22287 22388 22517 22638 22653 22483 22304 22173 22135 22015 22033 22079 22147 22105 21988 21898 21950 21807 21697 21620 21576 21540 21599 21680 21639 21559 21491 21433 21395 21374 21300 21230 21044 20840 20672 20430 20267 20267 20335 20340 20415 20365 20290 20191 20101 20028 19992 19885 19846 19674 19671 19609 19569 19450 19299 19241 19251 19233 19157 19110 19084
19372 19245 19105 19055 18980 18923 18893 18723 18678 18770 18755 18749 18695 18588 18413 18466 18412 18441 18346 18461 18472 18517 18538 18530 18429 18416 18513 18556 18500 18480 18345 18227 18020 18162 18203 18334 18446 18669 18815 18915 18957 18925 18926 18968 18991 19102 19160 19134 19158 19236 19248 19392 19472 19675 19762 19717 19780 19858 19904 19903 20021 20153 20313 20345 20401 20496 20566 20494 20509 20572 20758 20998 21129 21147 21133 21127 21076 21079 21052 20909 20822 20726 20566 20468 20327 20214 20207 20152 20099 20069 20072 19986 19922 19963 20072 20047 20016 20124 20198 20066 20029 20136 20145 20186 20271 20283 20202 20184 20126 20235 20230 20224 20173 20124 19996 19962 19958 19881 19858 19866 19854 20030 20092 20095 20199 20200 20103 20233 20325 20194 20018 19974 19951 19923 19952 19890 19913 19849 19725 19608 19542 19558 19544 19680 19714 19864 20001 20041 20071 20212 20341 20513 20593 20595 20697 20704 20636 20688 20748 20837 20848 20843 20786 20857 20953 20943 20935 20996 21014 21119 21293 21252 21223 21303 21501 21518 21453 21375 21358 21500 21534 21634 21773 21891 22003 21955 21972 21882 21895 21798 21745 21892 21939 22063 22114 22266 22373 22505 22529 22668 22810 22509 22294 22194 22072 22049 21972 22025 22082 22084 22035 21933 21892 21741 21707 21682 21552 21520 21541 21585 21577 21411 21304 21256 21280 21205 21210 21070 20911 20682 20554 20317 20082 20157 20248 20199 20218 20064 20032 20035 20003 19885 19871 19824 19705 19577 19497 19432 19269 19287 19245 19238 19157 19133 19178 19129 19075
19213 19062 18986 18898 18770 18672 18643 18543 18487 18492 18578 18577 18600 18420 18363 18332 18273 18368 18336 18361 18458 18400 18459 18485 18371 18347 18381 18430 18377 18308 18071 17919 17809 17904 17988 18072 18241 18446 18594 18754 18758 18796 18823 18877 18875 18984 19093 19080 19126 19210 19224 19346 19426 19578 19663 19766 19732 19720 19795 19822 19919 20102 20139 20191 20361 20464 20402 20395 20427 20656 20893 21015 21134 21126 21114 21042 21007 21049 21103 20986 20895 20785 20648 20568 20439 20352 20316 20178 20130 20205 20180 20052 20040 20125 20154 20090 20102 20213 20246 20131 20111 20204 20286 20378 20452 20475 20346 20327 20332 20364 20396 20344 20367 20258 20261 20137 19937 19888 19795 19848 19838 19926 20070 20112 20159 20146 20153 20204 20291 20208 20076 19977 19941 19873 19880 19887 19836 19886 19776 19712 19685 19644 19577 19602 19663 19827 19994 20038 20135 20270 20416 20545 20582 20703 20806 20702 20717 20719 20815 20881 20906 20890 20867 20949 21100 21058 21045 21133 21200 21280 21397 21330 21355 21404 21626 21680 21648 21612 21507 21578 21558 21675 21726 21799 22029 21921 21847 21746 21724 21682 21598 21761 21844 21969 22116 22152 22315 22402 22413 22651 22842 22616 22291 22157 22109 22135 22083 22068 22062 22054 22053 22042 21984 21870 21796 21712 21610 21570 21404 21375 21418 21316 21207 21214 21264 21100 21050 20902 20662 20520 20332 20239 20073 20061 20065 19997 20040 20014 19926 19923 19800 19744 19675 19652 19524 19405 19227 19121 19082 19123 19078 18988 18947 19031 19016 19048 18962
19005 18941 18793 18764 18655 18451 18359 18287 18216 18256 18277 18412 18496 18364 18249 18267 18183 18248 18243 18300 18426 18390 18357 18427 18408 18379 18322 18324 18300 18076 17857 17689 17645 17708 17811 17944 17975 18177 18360 18552 18688 18679 18649 18670 18676 18751 18908 18974 19140 19165 19293 19429 19467 19629 19675 19749 19739 19700 19747 19872 19940 20048 20081 20175 20381 20411 20358 20440 20460 20705 20941 21046 21172 21140 21194 21090 21059 21063 21033 20886 20858 20781 20823 20684 20566 20504 20399 20305 20184 20257 20259 20231 20218 20240 20355 20315 20307 20305 20367 20280 20176 20334 20470 20577 20590 20604 20611 20605 20588 20596 20512 20503 20583 20455 20413 20216 20015 19940 19816 19828 19870 19906 19980 19995 20042 20110 20107 20093 20136 20191 20138 20069 19944 19929 19891 19843 19848 19886 19828 19819 19764 19784 19727 19677 19689 19785 19925 20003 20156 20275 20474 20517 20625 20671 20792 20790 20860 20905 20827 20915 20932 20893 20948 21005 21184 21140 21166 21273 21280 21313 21467 21453 21511 21576 21726 21684 21750 21793 21727 21587 21539 21658 21719 21771 21939 21855 21828 21745 21601 21587 21562 21614 21725 21870 21992 22138 22258 22398 22416 22621 22815 22587 22397 22209 22096 22090 22100 22065 22134 22158 22091 22036 21958 21965 21887 21791 21657 21547 21395 21286 21254 21187 21233 21264 21180 21058 20939 20655 20446 20229 20083 20031 19947 19972 19927 19864 19841 19881 19806 19732 19618 19600 19519 19414 19325 19156 19052 18971 18926 18925 18818 18900 18863 18842 18906 18962 18932
18769 18687 18619 18512 18455 18413 18247 18191 18076 18069 18046 18232 18281 18248 18175 18155 18181 18213 18167 18206 18277 18237 18235 18277 18233 18257 18175 18225 18223 17972 17767 17709 17556 17581 17771 17856 17851 18009 18212 18440 18553 18633 18635 18626 18543 18735 18852 19010 19055 19124 19196 19376 19418 19541 19659 19615 19656 19757 19821 19866 19949 20085 20140 20278 20338 20414 20481 20567 20630 20753 20850 20979 21060 21007 21060 21064 21027 21014 21102 20915 20897 20897 20827 20719 20551 20514 20403 20375 20272 20360 20353 20327 20333 20416 20388 20314 20382 20292 20331 20411 20417 20528 20610 20728 20728 20774 20782 20773 20749 20671 20628 20628 20769 20600 20480 20314 20088 19972 19896 19899 20031 20013 20078 20075 20107 20019 20085 20003 20087 20127 19996 19943 19809 19823 19786 19764 19693 19837 19860 19790 19761 19738 19662 19618 19703 19887 20010 19969 20119 20244 20322 20485 20588 20638 20748 20817 20898 20947 20957 20981 21008 20943 20994 21154 21345 21293 21292 21364 21450 21496 21532 21542 21552 21681 21818 21807 21833 21891 21894 21735 21671 21710 21827 21861 21908 21851 21832 21688 21570 21623 21568 21648 21771 21839 21926 22097 22246 22414 22521 22543 22667 22557 22322 22174 22142 22144 22094 22107 22152 22172 22093 21966 21925 21820 21722 21662 21564 21482 21354 21357 21308 21224 21258 21160 21120 20962 20864 20615 20487 20284 20183 20039 19898 19891 19772 19755 19806 19748 19541 19420 19373 19279 19309 19236 19146 19032 18965 18873 18852 18712 18708 18688 18698 18713 18693 18726 18836
18555 18509 18365 18384 18308 18247 18143 18064 17939 17910 17917 17983 18021 18065 18100 18191 18261 18263 18178 18185 18128 18101 18189 18163 18128 18101 18025 18118 18103 17914 17763 17667 17473 17530 17613 17673 17733 17923 18119 18224 18300 18445 18521 18593 18539 18692 18767 18923 19007 19057 19115 19229 19290 19454 19524 19607 19571 19700 19825 19873 19958 20116 20201 20274 20355 20432 20617 20600 20674 20732 20833 20986 21038 20974 20989 21054 21003 21058 21084 21011 20877 20879 20757 20614 20580 20454 20446 20502 20455 20491 20444 20555 20568 20516 20348 20416 20435 20406 20399 20492 20566 20578 20672 20764 20850 20880 20884 20798 20836 20810 20865 20818 20891 20816 20646 20480 20246 20090 19989 20017 20078 20085 20221 20173 20150 20032 20038 19999 19943 19993 19939 19875 19785 19721 19786 19693 19643 19736 19792 19679 19641 19642 19568 19599 19726 19872 19989 19993 20124 20235 20283 20388 20601 20767 20808 20795 20880 21023 21053 20965 20986 21008 21099 21234 21418 21342 21380 21525 21557 21582 21685 21552 21507 21705 21788 21766 21869 21856 21964 21948 21844 21877 21819 21804 21873 21827 21843 21713 21585 21650 21608 21668 21803 21849 21931 22070 22286 22427 22547 22550 22639 22461 22361 22265 22180 22122 22050 22080 22134 22045 22025 21968 22000 21806 21605 21454 21422 21425 21408 21341 21254 21272 21193 21161 21051 20921 20850 20616 20459 20370 20247 20075 19920 19823 19689 19733 19737 19582 19347 19203 19148 19064 19000 18865 18842 18885 18817 18714 18679 18622 18693 18613 18599 18624 18596 18593 18674
18404 18311 18226 18173 18178 18110 18020 17890 17808 17787 17807 17854 17907 18039 18091 18189 18233 18217 18170 18071 18074 18088 18073 18117 18054 17976 17813 17827 17890 17761 17600 17582 17453 17426 17508 17539 17598 17691 17859 17974 18090 18261 18344 18351 18415 18590 18775 18955 19014 19016 19079 19159 19112 19261 19401 19399 19412 19566 19817 19887 20077 20187 20174 20248 20375 20540 20557 20582 20748 20802 20896 20837 20862 20987 20999 21060 20969 21077 21023 21008 20875 20890 20706 20689 20626 20510 20466 20418 20437 20559 20613 20603 20680 20495 20429 20436 20455 20499 20515 20585 20577 20641 20842 20887 20909 20844 20870 20849 20849 20909 20877 20968 20943 20827 20803 20636 20416 20286 20115 20240 20256 20291 20356 20241 20142 20015 19980 19897 19836 19741 19792 19695 19691 19575 19602 19537 19561 19637 19713 19597 19625 19671 19657 19739 19747 19820 19994 19951 20009 20176 20306 20406 20624 20757 20790 20889 21022 21053 21130 21131 21141 21190 21296 21456 21509 21502 21587 21639 21658 21702 21657 21593 21588 21633 21729 21836 21956 21951 22005 21913 21935 21893 21857 21902 21812 21767 21795 21667 21582 21703 21710 21680 21750 21802 21888 22042 22163 22359 22422 22463 22608 22557 22465 22361 22278 22238 22079 22229 22253 22078 21921 21974 21938 21747 21513 21456 21343 21354 21316 21295 21230 21180 21115 21086 21098 20854 20760 20623 20371 20332 20199 19952 19822 19730 19673 19620 19572 19477 19300 19118 18940 18905 18740 18603 18590 18542 18593 18489 18402 18491 18566 18546 18595 18538 18494 18524 18505
18166 18164 18124 18089 18040 17968 17828 17791 17698 17749 17760 17723 17784 17895 17974 18111 18136 18091 18108 18041 18006 17980 17964 17969 17887 17797 17717 17742 17753 17578 17471 17373 17371 17406 17334 17430 17503 17610 17706 17896 17994 18077 18214 18298 18351 18581 18747 18861 18941 18921 18946 19039 19053 19130 19161 19284 19309 19497 19704 19875 20108 20174 20236 20349 20426 20571 20590 20675 20775 20836 20881 20786 20760 20932 21024 20980 21042 21048 21062 21042 20991 20880 20774 20736 20616 20536 20567 20498 20525 20659 20753 20686 20729 20573 20542 20530 20568 20634 20663 20699 20712 20800 20932 20916 20923 20856 20839 20909 20871 20923 21011 21058 21113 20932 20850 20647 20507 20402 20286 20345 20319 20343 20379 20286 20212 19984 19868 19757 19757 19589 19519 19497 19504 19408 19406 19520 19552 19550 19619 19493 19495 19605 19677 19725 19810 19880 19947 19990 19995 20072 20271 20400 20601 20659 20717 20886 21071 21033 21113 21151 21173 21320 21453 21542 21521 21566 21737 21767 21749 21697 21737 21738 21717 21715 21769 21898 22013 21951 21943 21991 22088 22024 21881 21887 21845 21765 21792 21669 21616 21689 21777 21727 21800 21898 21919 21953 22064 22203 22362 22412 22528 22454 22456 22322 22287 22316 22222 22295 22252 22135 21924 21910 21791 21726 21542 21435 21359 21332 21206 21165 21208 21210 21112 21085 21073 20790 20630 20545 20400 20233 20075 19850 19691 19580 19580 19538 19437 19334 19134 18925 18821 18627 18521 18461 18331 18324 18293 18194 18184 18346 18462 18462 18530 18510 18421 18411 18392
18250 18131 18128 18096 18028 18061 17965 17769 17636 17764 17763 17755 17885 17937 17904 18059 18179 18135 18192 18033 17971 17989 18018 18019 17946 17874 17795 17847 17797 17787 17663 17562 17553 17580 17457 17534 17617 17740 17908 17949 18016 18045 18127 18253 18289 18526 18697 18769 18845 18921 18915 18926 19002 19047 19145 19190 19244 19437 19610 19721 19898 20054 20155 20291 20446 20496 20545 20651 20717 20751 20699 20664 20635 20767 20827 20849 20844 20903 20911 20913 20825 20880 20855 20725 20707 20535 20460 20440 20484 20551 20654 20678 20691 20588 20655 20631 20555 20586 20690 20714 20722 20790 20871 20919 20984 20831 20806 20871 20955 21036 21090 21157 21166 21022 20794 20687 20642 20454 20424 20333 20316 20278 20346 20247 20206 20107 19889 19839 19712 19669 19585 19638 19600 19579 19465 19508 19685 19638 19598 19463 19465 19627 19736 19738 19729 19808 19946 19961 20038 20110 20321 20521 20689 20645 20702 20877 21027 21006 21090 21172 21266 21367 21537 21559 21437 21551 21723 21669 21692 21602 21661 21705 21698 21645 21691 21819 21946 21931 21904 21974 21991 21837 21753 21716 21526 21613 21606 21476 21450 21475 21590 21623 21623 21650 21767 21801 21949 22043 22129 22259 22254 22294 22221 22111 22130 22144 22065 22032 22082 21980 21760 21698 21728 21603 21456 21328 21143 21119 21079 21126 21121 21030 20946 20862 20905 20621 20512 20340 20294 20193 19975 19827 19642 19576 19534 19396 19311 19218 19064 18940 18793 18755 18626 18559 18497 18385 18199 18136 18079 18187 18373 18420 18405 18379 18291 18325 18376
18311 18238 18115 18138 18079 18069 17998 17848 17698 17731 17753 17867 17867 17938 17908 18080 18153 18153 18176 18102 17997 18033 18138 18053 18085 18037 17937 17953 17951 17888 17738 17709 17651 17679 17634 17704 17826 17954 18041 17947 17951 18069 18100 18243 18311 18451 18589 18743 18852 18854 18929 18974 18921 19036 19026 19150 19187 19336 19606 19691 19782 19945 20032 20267 20462 20508 20524 20615 20631 20619 20593 20518 20469 20580 20589 20612 20717 20686 20730 20725 20783 20868 20831 20728 20717 20628 20469 20434 20401 20510 20521 20580 20617 20650 20737 20735 20646 20711 20739 20790 20760 20745 20836 20877 20955 20877 20875 20895 21000 21074 21114 21170 21214 21030 20795 20687 20660 20531 20462 20439 20409 20326 20356 20276 20177 20097 19994 19850 19742 19656 19689 19691 19659 19632 19495 19571 19714 19599 19569 19551 19545 19670 19679 19679 19605 19792 19876 19903 20051 20123 20322 20447 20692 20658 20669 20850 21023 21104 21169 21194 21271 21429 21501 21529 21461 21615 21672 21585 21518 21599 21644 21589 21657 21715 21734 21791 21763 21826 21912 21853 21855 21754 21562 21482 21323 21314 21379 21245 21228 21215 21323 21427 21532 21559 21627 21747 21898 21924 21944 22073 22105 22083 21977 22001 22035 21934 21807 21818 21800 21718 21622 21576 21581 21420 21305 21134 20990 21053 20992 21012 20986 20867 20724 20701 20617 20495 20486 20238 20099 20055 19969 19760 19524 19492 19442 19302 19260 19072 18941 18768 18721 18725 18647 18592 18540 18367 18187 18070 18003 18169 18209 18252 18364 18295 18282 18320 18320
18264 18208 18027 17995 17982 17896 17875 17874 17683 17647 17645 17703 17746 17868 17891 18064 18094 18026 18089 18118 18136 18187 18202 18218 18142 18141 18056 18039 18042 18022 17887 17823 17660 17799 17769 17818 17951 18104 18182 18083 18039 18128 18225 18294 18345 18508 18623 18753 18878 18959 18943 18939 18968 18992 19050 19055 19050 19191 19409 19573 19667 19866 20042 20301 20433 20329 20341 20458 20509 20391 20368 20418 20366 20458 20495 20533 20611 20637 20749 20850 20827 20778 20797 20679 20642 20606 20420 20401 20436 20450 20407 20449 20576 20673 20742 20725 20616 20697 20755 20776 20828 20813 20947 20996 20952 20966 20987 20963 21011 21131 21231 21268 21218 21079 20859 20768 20665 20575 20510 20377 20291 20254 20313 20221 20177 20021 19952 19939 19885 19728 19741 19775 19747 19641 19576 19547 19625 19639 19629 19727 19710 19751 19669 19596 19589 19713 19923 20050 20206 20243 20376 20557 20759 20705 20668 20806 20967 21001 21126 21157 21309 21396 21442 21507 21557 21557 21623 21516 21465 21577 21593 21534 21584 21682 21765 21818 21723 21767 21733 21795 21772 21627 21433 21332 21115 21160 21209 21186 21141 21179 21238 21339 21410 21424 21535 21671 21742 21791 21802 21854 21871 21819 21754 21789 21731 21748 21705 21666 21674 21585 21515 21482 21435 21259 21156 20960 20872 20888 20843 20864 20878 20774 20620 20622 20515 20367 20277 20058 19992 19884 19853 19645 19467 19426 19378 19224 19254 19016 18948 18855 18756 18755 18719 18601 18533 18457 18245 18097 17944 18064 18136 18254 18282 18230 18126 18168 18130
18203 18099 18051 17953 17917 17875 17879 17844 17690 17716 17651 17639 17731 17787 17901 17955 17995 17974 18031 18068 18170 18225 18323 18317 18227 18243 18273 18218 18187 18059 17949 17922 17777 17854 17876 17976 18101 18208 18233 18196 18151 18173 18234 18287 18264 18436 18549 18808 18981 19007 18972 18932 19016 19032 19004 18922 18897 19059 19340 19480 19651 19857 20078 20222 20385 20259 20241 20283 20267 20155 20164 20204 20293 20269 20354 20443 20551 20646 20809 20873 20823 20744 20664 20716 20694 20543 20470 20432 20402 20449 20419 20432 20538 20632 20658 20588 20564 20632 20823 20883 20882 20966 21015 21015 20979 20987 21098 21132 21108 21124 21232 21219 21280 21056 20866 20679 20561 20497 20435 20306 20288 20232 20194 20221 20197 20018 19951 20001 19954 19817 19765 19795 19748 19683 19672 19674 19647 19766 19763 19771 19852 19742 19717 19608 19583 19706 19898 20119 20238 20361 20496 20625 20727 20679 20704 20800 20893 20958 21151 21234 21320 21365 21403 21427 21563 21526 21479 21474 21464 21438 21507 21492 21589 21646 21784 21792 21761 21629 21611 21676 21650 21483 21285 21190 20991 21063 21095 21080 21014 20996 21107 21295 21391 21413 21511 21578 21558 21592 21696 21604 21608 21552 21454 21479 21540 21567 21545 21487 21498 21502 21391 21268 21254 21027 20909 20854 20692 20647 20695 20720 20648 20545 20514 20458 20363 20312 20141 19936 19832 19796 19685 19588 19449 19372 19267 19182 19172 18978 18829 18824 18732 18701 18758 18676 18572 18450 18381 18250 17993 18054 18000 18101 18104 18040 18085 18022 17999
18228 18161 18181 18087 18130 18036 17997 17827 17670 17779 17714 17723 17762 17786 17713 17755 17738 17866 17900 17977 18115 18112 18226 18206 18183 18257 18234 18211 18169 18105 18093 18025 17830 17951 17948 18052 18210 18164 18218 18247 18213 18265 18333 18244 18224 18361 18552 18721 18851 18862 18949 18871 18931 18888 18916 18857 18827 19103 19282 19404 19585 19787 19957 20155 20298 20187 20165 20204 20247 20230 20220 20219 20228 20225 20350 20462 20505 20559 20633 20664 20690 20669 20654 20635 20668 20617 20478 20512 20547 20588 20535 20526 20557 20680 20654 20678 20652 20684 20808 20809 20751 20889 20891 20905 20897 20979 21028 21116 21129 21176 21236 21322 21372 21191 20912 20833 20711 20542 20534 20444 20414 20348 20337 20379 20390 20178 20074 20172 20170 19983 19991 19831 19770 19705 19710 19676 19568 19778 19819 19804 19933 19825 19715 19722 19687 19848 19987 20078 20189 20404 20553 20649 20780 20716 20747 20773 20867 20931 21186 21274 21289 21318 21383 21453 21565 21439 21419 21496 21477 21501 21485 21463 21510 21517 21632 21666 21703 21567 21462 21461 21379 21277 21094 20961 20880 20846 20904 20933 20881 20936 21034 21155 21179 21206 21223 21222 21318 21252 21317 21330 21302 21381 21356 21344 21332 21410 21453 21397 21342 21333 21226 21139 21097 20856 20717 20536 20427 20523 20528 20559 20502 20503 20407 20351 20190 20184 20094 19883 19705 19567 19485 19452 19403 19304 19131 18993 18934 18813 18649 18587 18630 18671 18587 18582 18532 18418 18315 18170 17995 18048 18138 18187 18176 18130 17986 18024 18019
18323 18219 18202 18250 18235 18230 18137 17933 17765 17827 17765 17750 17757 17693 17632 17565 17575 17697 17732 17856 17937 17998 18153 18196 18168 18204 18283 18210 18203 18175 18211 18144 17964 18035 18113 18233 18245 18263 18303 18268 18348 18429 18427 18306 18259 18290 18445 18662 18781 18872 18847 18847 18760 18724 18705 18694 18737 19029 19240 19347 19494 19706 19871 20056 20129 20136 20036 20157 20165 20145 20157 20182 20082 20150 20343 20478 20516 20594 20576 20624 20593 20703 20697 20697 20646 20626 20580 20655 20644 20653 20767 20776 20699 20722 20747 20725 20635 20654 20795 20738 20677 20705 20733 20797 20921 20962 21071 21075 21191 21279 21290 21343 21424 21217 21013 20892 20856 20652 20574 20588 20499 20480 20482 20541 20489 20413 20250 20266 20263 20164 20101 20019 19910 19818 19740 19674 19586 19772 19851 19863 19941 19907 19754 19725 19689 19815 20013 20192 20250 20428 20610 20754 20927 20889 20795 20772 20870 20938 21120 21296 21358 21329 21380 21407 21483 21356 21301 21379 21404 21400 21447 21368 21361 21439 21423 21431 21537 21368 21278 21153 21148 20960 20876 20863 20798 20784 20734 20766 20866 20894 20955 21022 21037 20971 20991 20999 21056 21025 21035 21068 21020 21150 21163 21196 21183 21205 21246 21235 21274 21200 21048 20990 20922 20776 20529 20378 20264 20365 20415 20339 20319 20314 20202 20148 20144 20002 19953 19858 19640 19461 19338 19270 19241 19206 19096 18966 18811 18713 18588 18491 18507 18554 18534 18487 18395 18413 18328 18219 18094 18112 18160 18159 18181 18094 18010 18061 18033
18316 18338 18312 18318 18293 18202 18174 18062 17834 17847 17757 17864 17858 17714 17607 17603 17494 17559 17640 17677 17762 17974 18025 18116 18200 18268 18268 18288 18267 18238 18394 18246 18213 18197 18275 18338 18361 18353 18391 18383 18348 18382 18388 18393 18365 18394 18379 18531 18664 18688 18758 18739 18662 18665 18659 18764 18716 19053 19254 19394 19507 19589 19770 19858 19981 19966 20000 20004 19960 20013 20055 20050 20089 20170 20197 20315 20508 20526 20468 20481 20479 20545 20676 20609 20559 20524 20452 20588 20678 20719 20757 20767 20764 20705 20713 20693 20717 20653 20722 20608 20526 20590 20610 20707 20866 20846 20991 21039 21158 21232 21277 21407 21455 21313 21093 20982 20897 20813 20789 20737 20545 20527 20597 20623 20499 20491 20362 20359 20307 20251 20093 20057 20051 19934 19819 19708 19666 19748 19801 19820 19872 19767 19739 19627 19600 19914 20080 20184 20333 20565 20699 20848 20910 20852 20878 20916 20877 20981 21080 21268 21358 21277 21270 21252 21325 21248 21257 21300 21312 21300 21311 21215 21238 21260 21358 21342 21369 21201 21179 21070 20965 20918 20829 20718 20687 20669 20643 20787 20830 20869 20810 20749 20810 20729 20680 20705 20866 20874 20848 20760 20748 20943 21035 21034 21106 21235 21256 21193 21216 21133 20946 20791 20678 20471 20288 20121 20060 20103 20128 20078 20117 20066 20012 19981 19985 19817 19703 19618 19495 19295 19150 19118 19076 19007 18925 18873 18804 18668 18551 18463 18386 18404 18476 18378 18264 18328 18255 18188 18126 18257 18271 18233 18184 18164 18003 17935 17866
18381 18459 18475 18450 18434 18323 18215 18169 18027 18000 17856 17867 17913 17822 17634 17514 17367 17411 17495 17557 17663 17862 17963 18186 18302 18272 18214 18266 18342 18374 18484 18384 18376 18380 18388 18410 18465 18543 18537 18440 18430 18419 18375 18430 18366 18311 18378 18477 18581 18593 18623 18583 18517 18617 18659 18788 18793 19018 19195 19341 19579 19597 19730 19803 19947 19962 19936 19920 19857 19945 19951 19919 20000 20131 20145 20279 20451 20342 20336 20380 20446 20545 20534 20466 20374 20380 20451 20633 20766 20850 20870 20783 20801 20657 20630 20702 20677 20597 20597 20555 20449 20427 20515 20631 20699 20791 20977 21042 21123 21184 21284 21505 21614 21446 21201 21029 20972 20998 20922 20795 20618 20648 20682 20629 20583 20507 20362 20388 20366 20259 20144 20141 20106 20005 19866 19850 19719 19755 19853 19797 19864 19786 19638 19607 19634 19924 20183 20383 20481 20617 20757 20823 20888 20941 20965 20976 20977 21089 21153 21224 21264 21212 21202 21234 21245 21166 21093 21105 21168 21199 21248 21199 21198 21257 21255 21268 21309 21092 20954 20843 20845 20737 20741 20591 20475 20568 20678 20701 20713 20703 20603 20548 20478 20400 20437 20475 20630 20654 20627 20601 20463 20687 20803 20955 21052 21146 21215 21187 21223 20970 20812 20653 20434 20258 20136 19968 19877 19942 19963 19968 19983 19927 19924 19864 19769 19666 19559 19526 19449 19246 19048 18924 18851 18905 18873 18840 18697 18614 18554 18419 18346 18348 18407 18365 18256 18267 18274 18227 18258 18296 18280 18235 18264 18173 18020 17944 17821
18418 18504 18503 18437 18425 18351 18258 18123 18071 17983 17844 17835 17759 17669 17464 17335 17288 17356 17409 17485 17650 17791 17950 18080 18324 18244 18243 18289 18311 18377 18417 18330 18325 18435 18473 18542 18521 18605 18573 18435 18468 18399 18323 18280 18264 18339 18369 18404 18435 18440 18506 18548 18495 18571 18646 18677 18781 18920 19105 19332 19550 19587 19631 19670 19808 19843 19937 19883 19754 19830 19922 19834 19906 19936 20074 20234 20311 20346 20262 20304 20312 20294 20331 20266 20293 20374 20538 20624 20681 20796 20936 20837 20856 20741 20706 20695 20729 20641 20664 20557 20577 20648 20666 20832 20854 20946 21124 21175 21225 21248 21293 21392 21550 21427 21172 21117 21028 21042 20966 20859 20807 20722 20737 20678 20633 20645 20493 20575 20582 20395 20240 20240 20167 20034 20006 19963 19813 19775 19847 19850 19781 19733 19779 19635 19633 19934 20162 20421 20524 20669 20803 20783 20869 20917 21013 21035 20962 21027 21147 21079 21105 21052 21028 21001 20972 20936 20956 20943 20992 21016 21091 21126 21171 21128 21201 21154 21243 21049 20855 20894 20791 20657 20590 20426 20302 20354 20460 20475 20415 20320 20314 20349 20277 20305 20272 20374 20437 20418 20470 20419 20253 20407 20502 20657 20716 20853 21062 21039 21018 20817 20722 20592 20364 20188 19995 19868 19814 19866 19849 19804 19734 19733 19816 19818 19676 19537 19408 19312 19258 19060 18922 18881 18866 18868 18750 18645 18515 18472 18419 18333 18249 18257 18304 18267 18199 18179 18228 18203 18152 18211 18242 18244 18286 18082 17957 17889 17902
18487 18571 18544 18562 18512 18430 18351 18198 18040 17934 17823 17804 17686 17555 17396 17321 17298 17360 17448 17572 17644 17670 17823 18067 18262 18276 18305 18299 18385 18321 18292 18323 18280 18368 18522 18599 18559 18590 18507 18410 18428 18362 18221 18248 18152 18206 18354 18318 18360 18370 18352 18495 18591 18659 18728 18713 18659 18845 19127 19331 19419 19567 19631 19693 19757 19847 19878 19761 19678 19719 19830 19812 19805 19844 19949 20084 20250 20254 20187 20150 20090 20094 20195 20201 20309 20424 20543 20605 20697 20796 20946 21003 20968 20975 20911 20858 20860 20724 20640 20608 20693 20736 20885 20944 20966 21081 21285 21307 21337 21373 21411 21475 21569 21393 21145 21104 21026 21088 21079 20964 20950 20906 20746 20684 20713 20696 20587 20662 20743 20568 20351 20317 20211 20183 20188 20107 19927 19876 19818 19789 19784 19758 19797 19714 19590 19814 20144 20390 20594 20725 20778 20779 20734 20898 20974 20965 21035 21066 21063 21028 21060 21011 20882 20832 20798 20844 20844 20872 20883 20874 20880 20960 21065 21016 21027 21058 21054 21001 20872 20872 20778 20489 20315 20184 20127 20120 20163 20214 20169 20085 20000 20068 20051 20109 20048 20179 20286 20198 20201 20139 20007 20057 20141 20245 20472 20637 20823 20764 20824 20767 20666 20448 20269 20121 19914 19856 19737 19763 19769 19630 19611 19631 19722 19684 19653 19428 19259 19240 19186 19049 18835 18871 18813 18755 18668 18562 18421 18382 18311 18166 18130 18109 18174 18095 18090 18104 18153 18087 18148 18209 18256 18279 18200 18074 17945 17899 17866
18621 18698 18670 18568 18584 18414 18344 18201 18145 17950 17831 17715 17651 17543 17416 17337 17213 17313 17361 17480 17637 17741 17924 18146 18267 18288 18237 18307 18340 18335 18304 18364 18326 18365 18428 18521 18543 18543 18520 18523 18569 18408 18312 18179 18148 18116 18232 18144 18184 18231 18229 18398 18493 18602 18653 18612 18648 18895 19180 19308 19404 19486 19656 19651 19702 19806 19888 19761 19637 19652 19758 19745 19670 19840 19907 19975 20113 20110 20135 20090 20010 20079 20130 20129 20279 20459 20593 20647 20732 20778 20939 20999 20961 21004 20983 20970 20976 20864 20775 20804 20844 20797 20906 21033 21081 21263 21377 21438 21498 21491 21565 21550 21642 21412 21208 21128 21111 21142 21127 21028 20995 21016 20958 20832 20835 20754 20686 20825 20872 20689 20602 20450 20361 20289 20200 20101 20063 19979 19899 19939 19846 19834 19857 19642 19541 19748 20131 20315 20524 20576 20684 20680 20715 20843 20989 20985 20971 20986 20954 20890 20905 20857 20784 20768 20671 20761 20776 20723 20769 20745 20836 20976 21027 21067 21012 21027 20976 20873 20729 20742 20677 20412 20073 19919 19838 19839 19810 19855 19769 19739 19766 19743 19781 19800 19801 19962 20045 20012 19884 19902 19819 19835 19915 20065 20237 20389 20561 20651 20676 20583 20624 20410 20255 20044 19843 19746 19734 19675 19706 19560 19529 19571 19611 19579 19506 19409 19196 19208 19107 18993 18818 18691 18650 18614 18461 18473 18344 18245 18207 18113 18049 18119 18205 18157 18127 18120 18198 18220 18236 18237 18192 18123 18022 18018 18026 17952 17816
18751 18730 18783 18677 18609 18442 18340 18308 18212 18072 17942 17707 17575 17506 17421 17329 17140 17279 17311 17432 17563 17710 17908 18089 18209 18171 18165 18275 18311 18346 18362 18330 18279 18417 18435 18515 18482 18444 18476 18615 18650 18520 18375 18255 18163 18097 18142 18026 18034 18192 18230 18363 18462 18556 18596 18679 18694 18988 19169 19350 19436 19505 19666 19680 19707 19808 19823 19742 19707 19722 19616 19665 19632 19843 19955 19998 20059 20091 20086 20031 19985 19940 19981 20058 20210 20365 20533 20655 20666 20736 20888 21027 21073 21057 20965 21023 21032 21020 20886 20960 20952 20961 20962 21122 21222 21425 21521 21527 21566 21643 21671 21630 21599 21398 21263 21158 21142 21142 21059 21162 21146 21172 21150 20969 20904 20921 20880 20969 20957 20848 20736 20677 20548 20366 20313 20277 20146 20092 20037 19971 19840 19832 19793 19667 19527 19734 20023 20236 20488 20584 20615 20669 20731 20843 20967 20905 20972 20894 20842 20858 20845 20820 20721 20649 20522 20575 20703 20717 20672 20645 20744 20917 20976 20990 20911 20982 20948 20795 20595 20497 20481 20259 19942 19722 19572 19584 19477 19422 19472 19444 19456 19430 19430 19454 19508 19683 19761 19737 19663 19642 19593 19622 19681 19873 19983 20151 20294 20501 20605 20508 20486 20347 20186 20046 19807 19775 19633 19624 19656 19510 19465 19404 19431 19459 19372 19269 19051 19039 18946 18904 18777 18615 18535 18487 18354 18330 18340 18288 18214 18114 17976 18045 18174 18159 18153 18258 18342 18369 18292 18182 18138 17995 17972 17966 18004 17887 17827
18695 18715 18769 18655 18664 18544 18378 18276 18236 18132 17948 17883 17696 17548 17464 17402 17192 17291 17412 17514 17723 17836 17941 18074 18152 18127 18145 18317 18337 18400 18353 18357 18394 18484 18503 18394 18448 18424 18351 18512 18513 18359 18261 18207 18191 18108 18107 18002 18037 18113 18262 18404 18488 18530 18627 18746 18734 18888 19116 19168 19370 19392 19520 19543 19516 19646 19690 19635 19504 19479 19482 19559 19513 19614 19760 19780 19958 19954 19947 19896 19847 19849 19883 20002 20210 20317 20407 20458 20606 20699 20752 20859 21038 21051 21054 21110 21164 21143 21022 20984 21032 21107 21068 21107 21224 21417 21597 21563 21665 21605 21652 21693 21594 21434 21292 21177 21218 21225 21153 21258 21291 21208 21198 21108 21114 21060 21129 21108 21039 20936 20861 20769 20686 20555 20531 20390 20300 20243 20103 20040 19936 19966 19958 19758 19612 19786 19995 20174 20466 20455 20543 20579 20672 20812 20852 20812 20711 20731 20672 20649 20745 20732 20592 20544 20508 20478 20574 20651 20557 20549 20581 20718 20798 20823 20755 20775 20756 20593 20430 20366 20300 20059 19722 19544 19305 19329 19244 19240 19228 19247 19268 19109 19107 19225 19319 19440 19519 19486 19513 19511 19514 19549 19620 19824 19847 20014 20023 20186 20318 20175 20123 20028 19975 19783 19621 19620 19489 19579 19607 19459 19390 19379 19446 19491 19463 19315 19087 19020 18947 18945 18832 18645 18583 18450 18483 18356 18255 18229 18244 18073 17904 18042 18095 18063 18129 18194 18300 18290 18352 18243 18189 18025 17908 18012 18045 17911 17927
18648 18709 18721 18736 18686 18543 18477 18340 18160 18091 18058 17963 17770 17655 17493 17442 17326 17460 17573 17687 17804 17859 18008 18064 18182 18165 18219 18350 18447 18430 18405 18391 18481 18467 18494 18358 18314 18288 18327 18367 18403 18255 18232 18202 18162 18118 18022 18032 18012 18064 18230 18363 18421 18558 18647 18752 18756 18869 19007 19066 19193 19360 19452 19383 19401 19394 19505 19430 19345 19405 19450 19491 19425 19517 19515 19608 19746 19752 19742 19704 19665 19777 19845 20047 20139 20292 20400 20374 20420 20537 20660 20856 21006 21146 21229 21244 21349 21332 21257 21166 21107 21224 21261 21248 21302 21423 21628 21675 21747 21687 21726 21697 21551 21496 21343 21285 21326 21340 21349 21349 21339 21284 21296 21357 21357 21288 21331 21225 21115 21018 20967 20950 20819 20794 20760 20606 20408 20330 20152 20186 20146 20094 20052 19843 19741 19831 20015 20173 20410 20372 20406 20470 20646 20648 20674 20574 20566 20585 20483 20558 20622 20584 20528 20524 20397 20455 20469 20537 20535 20568 20530 20561 20620 20590 20482 20540 20586 20424 20259 20278 20195 19935 19573 19309 19163 19119 19120 18988 18949 18967 18983 18877 18884 19045 19131 19178 19190 19217 19268 19274 19379 19499 19678 19806 19826 19795 19874 19967 20084 19949 19858 19776 19729 19632 19475 19396 19444 19492 19472 19351 19322 19354 19337 19430 19506 19268 19150 19032 19018 18988 18949 18706 18515 18494 18487 18326 18294 18228 18173 18069 17918 17969 18080 18057 17990 18144 18211 18292 18329 18277 18175 18036 17933 17984 17987 18028 18066
18757 18773 18758 18653 18633 18606 18477 18325 18182 18071 17954 17949 17814 17656 17509 17415 17321 17440 17617 17744 17903 17928 18111 18120 18139 18169 18238 18351 18473 18482 18491 18518 18509 18507 18452 18339 18309 18276 18294 18360 18364 18372 18256 18209 18177 18167 18057 17987 17918 17904 18043 18233 18306 18432 18628 18646 18738 18869 18959 19037 19078 19217 19220 19224 19344 19337 19414 19380 19294 19251 19321 19288 19269 19290 19391 19506 19671 19614 19630 19627 19588 19603 19709 19937 20091 20190 20206 20236 20278 20455 20518 20741 20900 21145 21276 21303 21453 21408 21309 21377 21295 21314 21214 21245 21341 21384 21586 21708 21785 21753 21758 21672 21619 21542 21425 21479 21530 21511 21459 21445 21407 21380 21363 21409 21530 21532 21427 21392 21238 21132 21109 21046 21076 20943 20921 20674 20497 20446 20326 20240 20274 20213 20060 19896 19728 19880 19996 20117 20358 20414 20385 20409 20531 20526 20551 20470 20424 20411 20356 20387 20506 20531 20463 20318 20247 20270 20347 20399 20503 20449 20431 20340 20320 20307 20386 20439 20422 20271 20275 20129 19972 19621 19369 19194 18991 18951 18820 18775 18691 18654 18638 18542 18540 18620 18830 18838 18789 18878 19013 19177 19297 19360 19506 19684 19743 19729 19703 19836 19860 19738 19703 19658 19503 19433 19251 19267 19273 19278 19225 19311 19261 19337 19378 19468 19419 19307 19189 19172 19086 19049 19023 18847 18634 18551 18565 18370 18362 18289 18185 18106 17992 18085 18153 18065 18022 18087 18163 18268 18341 18318 18211 18145 18083 18114 18033 18034 18020
18741 18770 18676 18712 18658 18536 18420 18251 18166 18081 17943 18015 17975 17851 17630 17478 17385 17505 17560 17730 17934 17999 18162 18132 18175 18215 18354 18388 18436 18451 18514 18554 18496 18522 18528 18478 18315 18313 18216 18241 18374 18418 18378 18367 18298 18179 17986 17840 17759 17831 17942 17983 18134 18293 18542 18698 18749 18712 18786 18865 18876 18981 19043 19136 19292 19204 19245 19245 19184 19216 19125 19077 19059 19233 19364 19476 19561 19476 19480 19462 19564 19576 19691 19773 19936 20014 20085 20069 20100 20239 20495 20765 20917 21117 21222 21379 21468 21444 21470 21486 21416 21309 21247 21315 21311 21405 21484 21580 21716 21780 21775 21728 21625 21571 21579 21659 21718 21636 21664 21490 21359 21477 21477 21580 21630 21632 21635 21507 21485 21383 21280 21273 21249 21131 20994 20727 20568 20479 20467 20364 20326 20217 20111 19884 19749 19848 20055 20133 20272 20308 20348 20363 20475 20413 20351 20368 20319 20365 20296 20379 20499 20510 20440 20296 20208 20288 20254 20342 20391 20247 20213 20190 20143 20156 20279 20277 20288 20219 20172 20037 19804 19466 19208 19042 18842 18683 18505 18386 18320 18212 18188 18295 18311 18318 18454 18462 18505 18650 18836 18978 19196 19297 19359 19485 19575 19530 19540 19625 19658 19550 19555 19528 19399 19318 19139 19146 19073 19067 19065 19155 19266 19288 19368 19401 19389 19263 19206 19243 19208 19184 19094 18866 18727 18661 18528 18383 18332 18196 18122 18071 18002 18077 18136 18119 18068 18181 18223 18310 18478 18418 18371 18274 18122 18185 18160 18107 18071
18707 18700 18604 18631 18625 18497 18276 18222 18096 18044 17965 17941 17861 17796 17605 17375 17309 17503 17516 17757 17910 17969 18059 18123 18115 18154 18316 18298 18431 18394 18434 18507 18530 18526 18432 18457 18397 18343 18371 18243 18313 18311 18260 18309 18166 18074 18005 17878 17824 17822 17884 18087 18169 18275 18536 18591 18767 18692 18721 18724 18795 18892 18940 19033 19150 19137 19153 19150 19091 19010 19049 18964 18868 18975 19212 19313 19465 19496 19426 19544 19650 19788 19849 19918 19958 20055 20106 20099 20248 20355 20493 20631 20850 21038 21165 21262 21467 21331 21344 21358 21320 21376 21312 21263 21243 21348 21522 21597 21699 21737 21658 21656 21632 21582 21531 21497 21567 21615 21542 21372 21354 21390 21436 21445 21554 21609 21632 21553 21553 21530 21423 21355 21262 21117 21004 20892 20663 20565 20571 20442 20363 20213 20237 20016 19890 20053 20198 20181 20298 20394 20420 20505 20597 20529 20461 20315 20239 20381 20358 20494 20592 20513 20511 20378 20226 20298 20285 20354 20422 20271 20173 20176 20103 20099 20192 20246 20301 20189 20073 19922 19769 19449 19202 19094 18838 18704 18532 18378 18282 18306 18275 18269 18179 18136 18299 18258 18297 18422 18640 18698 18904 18978 19042 19159 19131 19162 19271 19362 19524 19357 19358 19296 19227 19060 18982 19009 18938 19013 19018 19017 19145 19075 19138 19239 19178 19169 19090 18978 18957 18966 18970 18745 18590 18588 18504 18333 18198 18166 18132 18080 17932 17953 17891 17948 17912 18101 18184 18340 18488 18436 18394 18348 18237 18314 18291 18117 18025
18688 18686 18659 18618 18502 18329 18185 18150 18072 18081 18027 17891 17867 17668 17490 17364 17342 17462 17601 17767 17863 17955 17984 18062 18113 18077 18154 18250 18376 18355 18420 18504 18518 18501 18391 18449 18515 18484 18429 18302 18182 18212 18226 18212 18155 18108 17986 17900 17804 17805 17935 18080 18150 18360 18491 18555 18707 18739 18679 18702 18619 18767 18902 18992 19087 18979 18956 18976 18912 18889 18987 18834 18737 18817 18994 19249 19390 19470 19487 19644 19756 19846 19934 19989 19951 20046 20025 20157 20337 20457 20512 20615 20776 20848 21030 21254 21400 21309 21172 21232 21313 21348 21282 21271 21225 21321 21455 21479 21584 21612 21604 21626 21547 21516 21381 21448 21540 21486 21454 21334 21273 21338 21302 21332 21434 21523 21658 21690 21747 21691 21540 21414 21266 21181 21122 21024 20875 20773 20748 20591 20336 20290 20285 20108 20009 20187 20308 20292 20357 20380 20504 20499 20618 20581 20521 20378 20221 20334 20332 20402 20572 20552 20462 20332 20312 20342 20427 20433 20395 20353 20217 20128 20073 20124 20173 20197 20313 20087 19966 19835 19698 19484 19191 19048 18858 18738 18618 18480 18344 18237 18248 18159 17979 17951 18037 18011 18100 18266 18337 18501 18654 18713 18674 18749 18784 18843 18899 19119 19289 19192 19220 19155 19024 18919 18865 18783 18829 18830 18897 18944 18953 18895 18912 19034 19070 18985 18966 18802 18719 18775 18730 18608 18552 18538 18443 18285 18183 18146 18063 17946 17752 17778 17715 17807 17852 17985 18160 18248 18385 18318 18350 18374 18281 18319 18333 18221 18098
18543 18488 18418 18365 18321 18238 18048 18043 17916 17960 18003 17911 17827 17737 17553 17461 17290 17426 17600 17791 17874 17927 18012 18083 18007 18070 18092 18181 18248 18335 18331 18376 18468 18480 18398 18486 18480 18395 18313 18264 18169 18107 18111 18174 18032 18002 18015 17820 17789 17820 17889 18031 18206 18338 18419 18575 18647 18605 18495 18505 18430 18497 18696 18779 18913 18873 18852 18846 18734 18852 18885 18725 18627 18764 18954 19118 19197 19374 19402 19606 19723 19871 19911 19866 19902 20005 20051 20266 20343 20415 20462 20580 20675 20845 20939 21105 21256 21120 21100 21158 21216 21229 21205 21136 21182 21169 21268 21341 21391 21485 21457 21461 21499 21491 21418 21354 21425 21452 21386 21321 21345 21402 21361 21445 21436 21438 21573 21637 21772 21687 21485 21428 21233 21182 21118 21059 21046 20952 20739 20520 20283 20282 20318 20130 20009 20222 20360 20316 20432 20391 20472 20508 20638 20642 20548 20329 20246 20308 20416 20452 20511 20559 20517 20514 20470 20488 20496 20356 20390 20323 20193 20111 19980 20026 20066 20091 20188 20021 19985 19874 19660 19481 19292 19178 19004 18811 18709 18529 18335 18287 18181 17983 17850 17829 17870 17934 17977 18073 18099 18127 18241 18349 18304 18357 18485 18580 18617 18763 18987 18956 18979 18998 18881 18822 18827 18715 18740 18755 18805 18815 18695 18670 18674 18808 18964 18774 18761 18713 18596 18573 18513 18473 18359 18409 18292 18249 18136 18017 17965 17811 17669 17640 17667 17681 17723 17897 18075 18208 18458 18435 18482 18520 18424 18371 18405 18316 18179
18461 18434 18295 18237 18234 18076 17960 17930 17855 17899 17906 17911 17893 17775 17547 17492 17342 17562 17698 17850 17959 17966 18016 18036 18024 17976 18024 18043 18110 18217 18255 18340 18463 18426 18394 18477 18526 18433 18316 18291 18222 18079 18041 18091 18017 17952 17940 17774 17656 17796 17850 18067 18178 18242 18383 18473 18553 18435 18378 18344 18353 18343 18459 18569 18675 18655 18644 18639 18584 18661 18682 18711 18619 18689 18874 19026 19118 19266 19415 19572 19753 19872 19909 19834 19835 19990 20182 20346 20424 20400 20434 20573 20658 20739 20783 20989 21102 21048 21020 20996 21034 21097 21070 21081 21054 21110 21172 21193 21198 21237 21274 21378 21356 21356 21339 21267 21299 21259 21293 21307 21341 21428 21498 21535 21489 21464 21566 21720 21875 21676 21554 21429 21275 21227 21242 21138 21120 20998 20819 20595 20354 20323 20336 20211 20083 20167 20351 20436 20406 20337 20368 20476 20566 20559 20508 20373 20352 20325 20404 20549 20578 20532 20481 20488 20537 20547 20448 20331 20259 20239 20152 20029 19833 19865 19946 20046 20181 20035 20003 19856 19646 19556 19353 19167 19061 18957 18771 18574 18410 18310 18103 17980 17769 17780 17735 17779 17797 17819 17762 17878 17936 17958 17917 18021 18153 18171 18295 18499 18694 18671 18669 18765 18756 18773 18670 18611 18597 18563 18610 18585 18491 18467 18499 18578 18746 18643 18618 18564 18401 18301 18269 18214 18268 18315 18267 18123 18055 17870 17773 17682 17542 17578 17512 17635 17703 17797 18008 18283 18537 18482 18493 18581 18547 18427 18374 18320 18316
18426 18278 18260 18078 18075 18007 17906 17822 17895 17911 17957 17795 17787 17672 17492 17439 17344 17508 17705 17798 17784 17869 17894 17992 17952 17984 18155 18138 18296 18292 18356 18435 18517 18459 18475 18542 18508 18390 18370 18348 18159 18064 18023 18024 17971 17876 17841 17705 17575 17687 17805 17938 18068 18118 18198 18332 18347 18309 18365 18258 18285 18267 18331 18465 18664 18536 18538 18613 18578 18593 18559 18580 18632 18729 18880 19012 19121 19288 19410 19518 19777 19871 20004 20021 20005 20143 20279 20320 20456 20455 20480 20563 20744 20870 20867 20968 21137 21094 20971 20969 20944 21054 21013 20989 21067 21074 21007 21173 21184 21163 21162 21150 21167 21195 21238 21210 21151 21206 21211 21321 21452 21500 21470 21468 21428 21461 21565 21698 21898 21724 21612 21500 21279 21222 21265 21190 21047 20887 20752 20570 20452 20340 20387 20166 20085 20124 20235 20347 20361 20351 20270 20348 20450 20476 20446 20279 20291 20375 20434 20501 20457 20406 20441 20516 20489 20293 20210 20134 20125 20087 19992 19898 19779 19834 19931 19950 20066 19943 19807 19598 19486 19337 19174 19083 18878 18866 18767 18503 18384 18159 18043 17903 17633 17684 17686 17649 17648 17644 17485 17618 17623 17689 17768 17872 17978 18011 18063 18228 18330 18365 18418 18522 18485 18455 18427 18477 18421 18457 18400 18460 18443 18421 18361 18470 18560 18506 18411 18373 18187 18131 18158 18118 18128 18169 18205 18006 17943 17867 17818 17610 17453 17455 17495 17620 17695 17876 17969 18235 18514 18413 18427 18448 18462 18388 18283 18327 18249
18363 18187 18116 17983 17972 17864 17791 17779 17873 17929 17906 17780 17642 17529 17514 17534 17432 17507 17682 17657 17668 17758 17890 17952 17984 18094 18264 18301 18386 18414 18540 18626 18665 18670 18566 18568 18509 18506 18439 18337 18185 18056 17892 17928 17992 17887 17771 17664 17567 17595 17725 17924 18022 18019 18137 18207 18241 18245 18318 18276 18228 18281 18293 18438 18595 18518 18544 18575 18629 18582 18535 18541 18531 18682 18821 18928 19104 19197 19321 19520 19838 19906 19974 20048 20074 20163 20323 20398 20466 20574 20629 20694 20744 20883 20964 21110 21229 21123 20961 20945 20965 20963 21021 20996 21026 20981 20935 21084 21120 21108 21066 20986 20907 21054 21131 21104 21126 21144 21208 21423 21545 21544 21459 21386 21437 21518 21571 21734 21921 21755 21577 21487 21359 21307 21186 21105 21070 20957 20789 20735 20592 20445 20336 20232 20041 20178 20228 20189 20199 20238 20252 20288 20320 20380 20344 20263 20282 20334 20434 20441 20402 20386 20447 20396 20374 20167 20086 19996 19934 19948 19881 19816 19626 19693 19832 19921 19961 19724 19578 19424 19370 19152 19012 18972 18824 18805 18660 18450 18285 18056 17906 17747 17596 17582 17513 17479 17494 17461 17308 17319 17430 17610 17704 17784 17835 17908 17957 17926 17968 18074 18095 18215 18297 18328 18241 18243 18149 18216 18163 18289 18329 18263 18115 18153 18255 18273 18245 18130 18070 18125 18074 18098 18007 18027 18033 17928 17917 17801 17760 17649 17433 17452 17384 17480 17697 17893 18044 18192 18384 18377 18379 18354 18431 18276 18245 18327 18294
18193 18119 18010 17968 17902 17825 17694 17712 17819 17834 17849 17738 17579 17556 17599 17547 17516 17544 17693 17619 17588 17717 17814 17895 17974 18025 18202 18283 18420 18520 18623 18672 18626 18672 18621 18595 18469 18527 18502 18342 18178 18023 17905 17841 17844 17820 17670 17523 17408 17519 17778 17894 17921 18050 18132 18134 18183 18214 18338 18192 18174 18285 18305 18327 18408 18524 18495 18528 18521 18553 18469 18459 18365 18488 18633 18788 18931 19194 19351 19515 19869 19960 19968 20058 20128 20220 20387 20434 20457 20606 20735 20747 20872 20959 20966 21141 21251 21159 20968 20986 21001 20860 20863 20930 20889 20913 20944 20991 20995 21020 20992 20924 20762 20872 20991 21043 21163 21168 21255 21405 21584 21601 21512 21510 21475 21605 21623 21790 21927 21693 21605 21452 21375 21294 21235 21134 21124 21058 20888 20851 20792 20626 20531 20268 20134 20094 20062 20106 20038 20123 20189 20215 20295 20324 20243 20306 20261 20263 20328 20413 20343 20395 20371 20337 20325 20171 20084 19896 19782 19726 19675 19659 19551 19693 19739 19836 19859 19643 19456 19381 19220 19161 18984 18884 18767 18727 18568 18418 18306 18112 17847 17688 17508 17414 17360 17297 17251 17265 17239 17161 17275 17339 17453 17516 17649 17701 17648 17653 17635 17770 17929 18026 18039 18071 18048 18088 18087 18129 18124 18157 18181 18124 18030 18041 17983 18068 18033 17897 17858 17865 17833 17767 17838 17825 17891 17760 17766 17687 17640 17485 17244 17354 17399 17438 17625 17806 17957 18136 18332 18394 18406 18326 18417 18345 18304 18352 18307
18086 17997 17945 17915 17761 17769 17703 17715 17774 17731 17790 17664 17629 17640 17587 17664 17654 17676 17723 17737 17625 17732 17812 17861 17910 18086 18218 18361 18410 18521 18611 18636 18629 18577 18588 18579 18556 18553 18473 18366 18166 18056 17858 17884 17806 17647 17459 17349 17312 17554 17709 17761 17902 17932 18055 18017 18105 18197 18250 18233 18191 18278 18344 18373 18342 18447 18461 18503 18425 18410 18339 18318 18312 18444 18566 18683 18881 19186 19421 19565 19836 19957 19977 20057 20134 20277 20462 20521 20570 20695 20769 20834 20925 20908 20988 21051 21176 21112 21063 21012 20950 20804 20773 20769 20765 20810 20901 20795 20799 20800 20804 20732 20653 20754 20862 20967 21174 21241 21274 21512 21624 21578 21650 21541 21512 21574 21661 21705 21820 21664 21603 21488 21368 21412 21347 21236 21233 21150 21109 21005 20912 20836 20638 20411 20155 20116 19980 19969 19978 20114 20131 20152 20165 20133 20170 20266 20321 20322 20279 20361 20317 20231 20219 20267 20230 20187 20095 19924 19719 19606 19550 19616 19566 19732 19775 19772 19840 19660 19401 19230 19106 19040 18864 18851 18773 18641 18567 18455 18245 18038 17896 17647 17305 17289 17197 17221 17120 17050 17055 17041 17108 17194 17273 17364 17380 17417 17339 17334 17373 17479 17645 17730 17899 17991 17968 17972 17958 17973 18017 18015 18116 17935 17859 17904 17838 17799 17797 17798 17743 17667 17534 17524 17548 17675 17680 17576 17565 17506 17475 17362 17179 17262 17305 17401 17519 17731 17969 18064 18223 18307 18347 18334 18279 18264 18299 18283 18310
18023 17934 17905 17848 17735 17835 17799 17747 17713 17728 17840 17676 17639 17646 17648 17676 17672 17635 17727 17695 17743 17753 17850 17946 17904 18087 18225 18323 18351 18402 18469 18495 18542 18501 18541 18581 18523 18491 18414 18298 18199 18022 17877 17896 17793 17651 17511 17525 17438 17646 17785 17854 17979 18036 18001 18079 18120 18084 18143 18134 18129 18193 18261 18286 18258 18310 18479 18466 18423 18371 18245 18233 18186 18311 18512 18620 18726 19053 19220 19495 19750 19864 19977 19965 20007 20180 20355 20396 20506 20611 20760 20775 20969 20997 20961 20988 21087 21022 20937 20922 20880 20844 20810 20748 20845 20861 20817 20832 20782 20854 20899 20737 20686 20770 20968 21067 21286 21257 21297 21449 21673 21682 21683 21564 21519 21707 21777 21769 21832 21774 21673 21593 21542 21518 21491 21517 21433 21382 21208 21127 21083 20976 20801 20574 20371 20267 20184 20147 20069 20173 20228 20303 20323 20292 20239 20194 20191 20228 20343 20401 20345 20288 20242 20225 20152 20041 19969 19718 19595 19613 19533 19576 19539 19664 19754 19805 19825 19597 19469 19266 19016 18955 18802 18763 18656 18482 18352 18203 18112 17844 17698 17517 17204 17173 17187 17145 17066 17103 16998 16894 16933 16990 16996 17096 17204 17171 17165 17193 17204 17272 17381 17531 17637 17705 17719 17705 17792 17824 17846 17833 17896 17821 17702 17723 17702 17621 17584 17480 17461 17439 17420 17412 17427 17448 17423 17426 17491 17429 17362 17225 17065 17198 17333 17373 17366 17562 17738 17891 18009 18051 18098 18156 18152 18156 18221 18248 18347
17976 18047 17994 17842 17780 17876 17864 17779 17710 17773 17771 17739 17586 17657 17801 17718 17683 17629 17683 17760 17809 17772 17810 17923 17965 18121 18232 18287 18291 18300 18415 18501 18550 18565 18620 18571 18571 18456 18315 18218 18126 18083 17978 17874 17801 17754 17594 17556 17463 17693 17815 17883 17945 18012 17962 17965 18088 18126 18113 18087 18118 18222 18280 18179 18126 18204 18403 18407 18382 18280 18279 18201 18039 18210 18372 18485 18645 18900 19092 19420 19652 19698 19866 19918 19876 20158 20318 20376 20396 20512 20665 20762 20915 20972 20944 20920 21023 20952 20868 20902 20918 20895 20804 20781 20809 20757 20775 20783 20803 20867 20875 20778 20720 20827 21044 21164 21281 21283 21378 21449 21632 21653 21599 21653 21626 21767 21792 21829 21926 21760 21700 21631 21672 21683 21723 21689 21601 21495 21395 21211 21128 21002 20884 20761 20544 20383 20263 20252 20126 20157 20288 20322 20452 20404 20344 20289 20155 20239 20314 20368 20339 20219 20186 20059 20042 19919 19807 19643 19484 19500 19614 19562 19626 19669 19768 19787 19708 19538 19442 19233 18969 18927 18813 18611 18506 18293 18169 18063 18055 17769 17492 17278 17027 17061 17086 17120 17132 17064 16919 16845 16830 16770 16825 16857 16981 17050 17006 16949 16972 17123 17235 17265 17399 17440 17422 17420 17524 17580 17680 17661 17649 17583 17570 17531 17536 17476 17325 17241 17228 17273 17216 17309 17365 17372 17290 17417 17443 17257 17176 17083 16987 17125 17240 17211 17210 17401 17561 17788 17896 17922 17862 17903 17935 18111 18212 18363 18420
17919 18033 18011 17909 17765 17807 17865 17868 17819 17739 17738 17701 17711 17793 17886 17767 17697 17604 17645 17746 17809 17865 17829 17807 17903 18062 18220 18212 18130 18171 18245 18449 18542 18583 18581 18613 18558 18424 18310 18200 18129 18064 17952 17847 17743 17727 17721 17604 17559 17641 17806 17881 18004 17997 17961 18074 18057 18096 17976 18004 18005 18109 18109 18057 18032 18170 18316 18297 18384 18226 18187 18059 18040 18205 18314 18474 18544 18782 18959 19165 19455 19464 19615 19717 19854 20065 20174 20257 20273 20391 20606 20705 20795 20852 20805 20807 20951 20838 20918 20951 20909 20959 20970 20946 20885 20846 20812 20707 20775 20730 20749 20788 20760 20871 21104 21212 21364 21432 21439 21542 21601 21715 21768 21698 21704 21811 21835 21882 21989 21871 21863 21815 21748 21772 21850 21748 21685 21565 21453 21354 21262 21190 21017 20842 20601 20425 20380 20274 20151 20223 20267 20331 20409 20354 20346 20293 20187 20320 20378 20410 20361 20267 20182 20070 20061 19915 19763 19624 19444 19476 19491 19514 19649 19695 19687 19705 19702 19526 19370 19132 18813 18743 18671 18515 18414 18262 18012 17997 17955 17694 17410 17276 16975 16966 16896 16950 17001 16837 16758 16696 16674 16668 16730 16750 16804 16723 16765 16744 16725 16730 16850 17023 17142 17172 17269 17217 17311 17346 17379 17344 17275 17324 17315 17318 17224 17164 17149 16998 16958 16996 17009 17132 17093 17231 17230 17207 17281 17145 17128 17008 17006 17065 17095 17084 17154 17254 17401 17623 17703 17777 17806 17785 17777 17998 18075 18215 18340
17932 17975 17925 17854 17721 17803 17835 17845 17866 17813 17794 17844 17770 17845 17871 17760 17727 17685 17734 17798 17757 17823 17766 17816 17914 17978 18099 18128 18057 18135 18148 18267 18456 18481 18563 18595 18658 18574 18372 18202 18142 18110 17986 17861 17788 17815 17728 17693 17543 17747 17867 17967 18012 18081 18072 18132 18111 17978 17935 17887 17943 18003 18050 17982 18035 18058 18192 18302 18298 18131 18087 17978 17938 18089 18196 18314 18416 18593 18742 19023 19242 19317 19489 19708 19864 20017 20088 20096 20108 20275 20506 20640 20664 20688 20724 20760 20804 20778 20849 20928 20981 21064 21070 20997 20922 20851 20766 20698 20715 20709 20723 20766 20859 20951 21168 21353 21459 21476 21517 21568 21684 21811 21852 21813 21801 21922 21954 22036 22125 22063 22095 22031 21953 21918 21893 21764 21749 21611 21572 21475 21405 21284 21104 20934 20749 20563 20441 20399 20304 20325 20326 20458 20489 20396 20225 20146 20187 20326 20357 20369 20310 20186 20063 20078 19978 19806 19705 19524 19327 19318 19371 19501 19587 19559 19634 19644 19573 19467 19250 18932 18686 18611 18455 18365 18286 18171 17953 17853 17729 17535 17389 17211 16969 16842 16828 16867 16938 16781 16592 16483 16428 16490 16521 16503 16509 16488 16522 16501 16356 16432 16510 16672 16775 16865 16992 17001 17017 17101 17124 17117 17025 16962 16973 16996 17013 16928 16862 16734 16732 16832 16917 16933 16941 17035 17050 17027 17089 17058 16998 16972 16997 17048 16981 17009 17079 17186 17252 17454 17625 17669 17784 17702 17743 17874 17945 18076 18314
17917 17987 18030 17904 17799 17893 17904 17841 17906 17923 17939 17987 17989 17965 17909 17840 17804 17775 17747 17844 17835 17912 17950 17960 18062 18076 18139 18071 18019 18135 18197 18412 18618 18547 18555 18580 18603 18531 18410 18275 18049 17956 17938 17890 17830 17735 17716 17590 17544 17617 17775 17910 17994 17946 18008 18070 18048 17889 17928 17786 17849 17929 17940 17919 17856 17942 18078 18269 18284 18187 18104 17925 17847 18013 18170 18291 18479 18624 18801 18981 19140 19230 19373 19550 19727 19844 19966 19892 19945 20159 20282 20435 20451 20515 20612 20679 20808 20796 20884 20928 20987 20981 20937 21032 21033 20932 20820 20810 20788 20701 20715 20759 20838 20937 21153 21262 21443 21415 21512 21647 21695 21805 21894 21963 21958 21983 22021 22090 22204 22080 22097 22064 21978 22002 21947 21904 21892 21711 21605 21508 21402 21307 21105 21011 20822 20707 20562 20593 20479 20399 20407 20427 20553 20461 20310 20290 20152 20291 20270 20268 20217 20094 20023 19961 19907 19689 19569 19367 19306 19270 19305 19405 19425 19428 19466 19521 19395 19289 19019 18777 18597 18500 18400 18309 18143 17948 17789 17713 17537 17440 17247 16999 16862 16836 16771 16783 16848 16640 16578 16376 16254 16258 16368 16284 16203 16291 16352 16229 16164 16162 16220 16335 16492 16532 16642 16680 16688 16638 16647 16728 16619 16669 16685 16741 16843 16697 16579 16497 16608 16564 16582 16691 16788 16854 16906 16909 16999 16905 16824 16778 16805 16872 16784 16878 16922 17001 17129 17267 17408 17552 17623 17635 17635 17745 17887 18036 18230
17955 17960 18014 17941 17805 17887 17915 17955 17906 18004 17991 18109 18124 18062 18017 18014 17936 17847 17866 17915 17996 18039 18050 18195 18240 18187 18062 18033 18076 18147 18313 18429 18673 18576 18492 18590 18639 18486 18414 18274 18027 17952 17815 17881 17877 17752 17589 17487 17460 17624 17703 17800 17887 17900 17929 17943 17932 17820 17824 17676 17630 17696 17725 17745 17719 17816 18021 18195 18243 18105 18094 17999 17843 18029 18241 18371 18580 18691 18828 18995 19061 19107 19273 19381 19508 19677 19774 19750 19789 19927 19971 20136 20197 20422 20584 20735 20797 20783 20798 20783 20892 20957 20930 21005 21082 20949 20854 20855 20806 20743 20763 20808 20773 20877 21013 21226 21339 21366 21431 21602 21751 21857 21883 21994 22074 22079 22200 22217 22295 22163 22099 22106 21987 22001 22007 22032 22091 21937 21759 21537 21344 21312 21167 20980 20784 20701 20742 20708 20560 20531 20547 20534 20534 20517 20387 20361 20226 20194 20289 20213 20233 20093 20025 19967 19820 19585 19403 19319 19282 19207 19201 19239 19307 19375 19321 19337 19326 19042 18734 18557 18453 18407 18286 18181 18016 17794 17586 17511 17319 17241 17160 16927 16713 16650 16622 16596 16639 16591 16509 16335 16121 16144 16175 16095 16023 16026 16059 16019 15860 15904 15872 16023 16085 16115 16188 16172 16285 16294 16297 16368 16327 16398 16375 16436 16620 16513 16386 16313 16362 16367 16364 16417 16531 16578 16679 16713 16795 16709 16699 16741 16661 16616 16692 16763 16820 16846 16982 17107 17223 17277 17426 17426 17548 17662 17745 17892 18110
17939 18017 18010 17915 17850 17948 17982 17956 17997 18119 18156 18223 18215 18175 18146 18092 18063 18044 17992 18072 18072 18161 18174 18319 18302 18179 18147 18219 18168 18281 18398 18474 18650 18655 18586 18548 18555 18459 18343 18119 17981 17906 17811 17850 17881 17799 17695 17595 17449 17507 17646 17759 17791 17772 17879 17885 17788 17764 17640 17615 17553 17622 17681 17707 17662 17766 17948 18085 18130 18055 17998 17939 17896 18023 18214 18423 18550 18709 18877 18977 19048 19096 19163 19262 19439 19550 19623 19713 19765 19736 19800 19888 20048 20211 20418 20575 20632 20796 20862 20858 20813 20920 20944 21007 21084 20979 20881 20922 20816 20799 20788 20823 20712 20874 20954 21135 21299 21406 21465 21637 21718 21807 21952 22016 22178 22243 22213 22332 22340 22322 22232 22175 22035 22146 22130 22132 22241 22003 21680 21589 21376 21320 21151 21110 20968 20812 20814 20790 20649 20593 20536 20528 20530 20448 20297 20250 20185 20241 20288 20249 20192 20067 19914 19754 19593 19460 19352 19265 19202 19098 19054 19152 19218 19147 19090 19067 19115 18747 18511 18425 18196 18088 18018 17900 17814 17627 17398 17295 17174 17073 16970 16747 16620 16570 16549 16488 16473 16455 16465 16273 16117 16121 15983 15932 15901 15875 15833 15712 15598 15654 15525 15696 15670 15761 15806 15790 15949 15976 16025 16077 16078 16085 16111 16256 16305 16333 16224 16277 16295 16243 16206 16275 16387 16477 16497 16583 16754 16691 16700 16679 16589 16606 16623 16695 16789 16822 16937 17006 17102 17138 17245 17388 17503 17686 17853 17929 18115
17916 17950 17890 17904 17964 17960 17945 18021 18124 18176 18229 18309 18391 18390 18375 18255 18238 18201 18179 18072 18065 18192 18334 18390 18380 18339 18281 18305 18344 18361 18431 18620 18712 18585 18557 18582 18527 18345 18184 18016 17846 17826 17879 17755 17759 17681 17715 17559 17506 17534 17642 17624 17600 17649 17788 17752 17725 17574 17549 17510 17479 17517 17639 17613 17608 17724 17828 17855 17968 17932 17916 17917 17928 18071 18191 18349 18619 18725 18959 19098 19113 19085 19076 19246 19295 19371 19367 19506 19630 19690 19740 19793 19857 20115 20303 20480 20586 20662 20814 20876 20863 20848 20917 20949 21093 21055 21037 20991 20952 20863 20773 20734 20698 20795 20999 21079 21255 21378 21533 21571 21632 21816 22013 22137 22211 22268 22266 22420 22502 22407 22347 22298 22194 22199 22136 22155 22265 22013 21730 21630 21410 21292 21174 21133 21035 20893 20794 20743 20764 20686 20521 20511 20521 20442 20330 20316 20233 20166 20220 20227 20109 19935 19838 19622 19491 19283 19199 19085 19081 18995 19009 19043 19087 18950 18845 18844 18853 18564 18337 18208 18028 17957 17866 17647 17534 17345 17221 17090 17045 16896 16856 16690 16492 16536 16455 16439 16372 16304 16335 16162 16066 15989 15796 15780 15778 15718 15603 15553 15414 15408 15288 15350 15371 15399 15370 15471 15569 15617 15687 15759 15803 15851 15955 16057 16077 16065 16162 16237 16220 16204 16128 16155 16200 16239 16324 16450 16630 16700 16715 16650 16576 16586 16543 16663 16682 16740 16783 16878 17059 17094 17183 17289 17482 17659 17883 18073 18162
17848 17841 17960 17907 18012 18048 18084 18085 18217 18227 18226 18304 18400 18383 18478 18307 18269 18226 18214 18257 18275 18261 18355 18373 18442 18448 18379 18462 18451 18562 18600 18701 18768 18731 18664 18743 18669 18458 18177 17962 17834 17776 17792 17677 17694 17620 17631 17486 17466 17431 17573 17601 17624 17692 17660 17652 17620 17606 17478 17521 17489 17451 17510 17498 17606 17660 17699 17752 17920 17907 17921 17917 17928 18128 18195 18423 18636 18705 18805 18959 19038 19083 19127 19285 19263 19330 19349 19358 19474 19569 19601 19658 19739 20067 20254 20372 20477 20569 20794 20747 20770 20842 20804 20953 20971 20939 21012 20953 21050 20907 20855 20821 20743 20810 20889 21087 21231 21345 21478 21568 21752 21883 22027 22015 22087 22212 22288 22436 22459 22340 22284 22226 22076 22146 22078 22148 22108 21990 21694 21541 21406 21254 21219 21212 21167 20923 20738 20664 20694 20570 20546 20542 20557 20549 20555 20408 20312 20275 20283 20219 20208 19966 19878 19754 19550 19398 19260 19242 19154 19060 19098 19053 18992 18912 18793 18743 18775 18607 18367 18162 17961 17879 17787 17585 17417 17258 17186 16996 16910 16885 16790 16553 16475 16486 16403 16431 16405 16321 16302 16158 16146 15970 15787 15743 15680 15729 15696 15508 15426 15430 15373 15340 15388 15414 15372 15488 15502 15548 15702 15754 15760 15782 15924 15935 15916 16010 16163 16105 16135 16132 16086 16181 16095 16223 16335 16389 16593 16550 16553 16568 16552 16557 16488 16603 16776 16769 16887 16993 17176 17221 17316 17350 17594 17778 17890 18074 18186
17788 17822 17915 17978 18053 18095 18194 18242 18307 18258 18251 18283 18338 18426 18455 18347 18194 18232 18277 18370 18420 18465 18452 18445 18460 18418 18461 18533 18646 18697 18713 18834 18950 18829 18767 18819 18745 18500 18258 17967 17751 17814 17829 17679 17552 17634 17653 17519 17395 17391 17443 17515 17629 17643 17650 17670 17635 17594 17477 17521 17464 17406 17471 17473 17571 17622 17695 17792 17854 17854 17937 18029 18019 18116 18317 18433 18661 18769 18768 18915 19047 19094 19213 19275 19338 19383 19398 19289 19204 19319 19537 19596 19689 19925 20111 20277 20475 20550 20685 20634 20698 20771 20758 20930 20977 20972 20986 20995 21056 20995 20939 20817 20717 20804 20907 21024 21131 21240 21451 21544 21766 21821 21965 22003 22089 22222 22283 22355 22366 22344 22227 22144 22027 21987 22045 22005 21993 21894 21759 21622 21425 21310 21193 21230 21182 21011 20808 20692 20580 20595 20557 20583 20625 20692 20682 20500 20420 20307 20311 20295 20252 20102 20018 19824 19697 19556 19302 19289 19232 19236 19156 19045 18954 18927 18801 18772 18715 18565 18327 18187 17965 17854 17778 17602 17364 17219 17108 16936 16868 16750 16677 16513 16466 16495 16401 16326 16368 16336 16206 16137 16161 16019 15837 15805 15661 15718 15672 15530 15414 15411 15341 15373 15505 15503 15421 15410 15397 15500 15610 15634 15771 15842 15827 15876 15869 15912 16065 15964 15960 16077 16157 16188 16102 16210 16276 16290 16430 16430 16383 16379 16435 16402 16432 16645 16750 16805 16944 17087 17341 17289 17347 17423 17611 17767 18017 18060 18204
17735 17845 17860 17933 18002 18103 18248 18287 18446 18407 18320 18349 18273 18399 18449 18402 18275 18316 18332 18439 18503 18470 18541 18562 18490 18539 18599 18694 18768 18806 18773 18913 18980 18954 18807 18724 18677 18481 18258 18048 17806 17852 17844 17698 17585 17560 17592 17538 17426 17422 17518 17495 17597 17574 17646 17702 17633 17636 17532 17470 17471 17414 17444 17461 17442 17545 17595 17629 17732 17908 17993 18034 18166 18283 18464 18528 18709 18761 18812 18876 18863 19002 19072 19108 19227 19243 19347 19147 19094 19333 19549 19648 19674 19801 20016 20213 20345 20480 20591 20588 20602 20594 20701 20771 20829 20869 21028 20975 20944 20870 20863 20884 20879 20900 21041 21057 21130 21237 21487 21610 21715 21728 21814 21978 22025 22217 22281 22427 22397 22306 22216 22088 22025 22078 22012 22047 21990 21824 21641 21503 21319 21227 21169 21192 21112 20940 20916 20780 20566 20629 20552 20647 20707 20725 20836 20674 20661 20460 20464 20392 20270 20153 20112 19984 19842 19668 19462 19327 19301 19265 19186 19110 19005 18991 18848 18736 18679 18427 18210 18066 18019 17858 17683 17529 17328 17114 16999 16866 16768 16665 16542 16412 16328 16425 16359 16416 16430 16297 16275 16240 16181 16065 15918 15878 15744 15679 15705 15519 15372 15398 15386 15383 15457 15449 15439 15426 15446 15502 15479 15562 15687 15684 15722 15761 15839 15903 15961 15974 15941 16029 16070 16028 16002 16052 16113 16156 16166 16184 16216 16204 16284 16363 16427 16629 16753 16915 17082 17253 17472 17414 17456 17536 17738 17894 17971 18119 18188
17782 17824 17832 17923 17986 18066 18229 18333 18478 18405 18405 18355 18272 18385 18434 18345 18349 18435 18516 18579 18532 18581 18511 18521 18643 18623 18711 18764 18791 18871 18960 19085 19089 19029 18904 18772 18710 18499 18343 18093 17910 17875 17861 17731 17567 17495 17520 17563 17507 17586 17570 17527 17449 17465 17559 17719 17757 17644 17510 17438 17493 17371 17321 17372 17359 17336 17402 17589 17691 17833 17929 18109 18315 18394 18586 18648 18631 18708 18780 18786 18727 18830 19034 19064 19137 19181 19182 19071 18975 19147 19440 19556 19740 19823 19928 20071 20279 20320 20469 20473 20482 20500 20527 20584 20732 20863 20947 20975 20954 20905 20911 20958 20962 20973 21068 21082 21165 21238 21405 21583 21717 21720 21741 21857 21961 22116 22302 22436 22459 22359 22251 22094 22010 22069 22011 22000 21959 21713 21485 21356 21209 21189 21222 21104 21110 20952 20915 20773 20649 20644 20646 20699 20836 20821 20869 20775 20783 20650 20529 20373 20282 20164 20113 19968 19916 19762 19511 19372 19315 19189 19172 19139 19073 19051 18924 18791 18584 18434 18209 18069 17997 17794 17545 17307 17166 17065 16959 16856 16689 16555 16326 16258 16214 16332 16365 16443 16423 16353 16237 16209 16118 16153 16070 15936 15771 15733 15639 15521 15434 15325 15330 15348 15440 15378 15382 15366 15437 15495 15461 15562 15546 15601 15581 15686 15701 15793 15810 15924 15931 15999 16006 15965 15846 15890 16008 16044 15992 16037 16143 16125 16187 16309 16423 16534 16742 16978 17147 17269 17519 17633 17632 17729 17838 17975 18019 18109 18286
