18092 18106 18161 18144 18090 17997 17931 17831 17757 17681 17620 17544 17514 17433 17408 17413 17386 17385 17410 17398 17342 17336 17255 17187 17193 17098 17064 17130 17259 17287 17370 17350 17291 17339 17337 17395 17419 17429 17473 17448 17462 17467 17478 17574 17675 17690 17745 17796 17821 17792 17775 17844 17868 17925 17912 17979 18053 18124 18225 18286 18384 18486 18604 18742 18840 18963 19030 19115 19274 19429 19536 19701 19814 19941 20053 20186 20269 20382 20485 20494 20561 20617 20653 20697 20700 20693 20614 20767 20847 20932 21019 20971 20938 20921 20923 20910 20977 20995 20962 21041 21072 21153 21260 21261 21306 21371 21453 21413 21430 21474 21479 21487 21487 21510 21524 21614 21634 21711 21840 21935 22059 22185 22353 22388 22459 22426 22415 22504 22550 22667 22747 22821 22847 22889 22881 22952 23015 23040 23074 23158 23215 23293 23340 23380 23410 23397 23427 23439 23518 23558 23586 23607 23613 23704 23758 23817 23812 23880 23936 23968 23976 24028 24063 24018 23997 24036 24042 23929 23878 23875 23827 23913 23990 24030 24096 24126 24142 24096 24100 24079 24065 24107 24184 24150 24150 24194 24189 24095 24059 24063 24106 24113 24082 24071 24033 23967 23919 23851 23802 23749 23602 23535 23455 23409 23343 23292 23254 23213 23204 23206 23205 23199 23144 23104 23079 23100 23147 23183 23129 23133 23134 23089 23058 23055 23118 23057 23021 22968 22965 22937 22852 22846 22848 22750 22691 22686 22644 22547 22519 22485 22472 22505 22548 22463 22444 22329 22264 22297 22322 22316 22250 22262 22289 22237 22218 22256 22293 22251 22289 22200 22075 22019 21921 21854 21728 21661 21632 21601 21549 21542 21458 21411 21362 21298 21279 21199 21090 21072 21005 20967 20891 20791 20766 20798 20865 20921 21050 21002 21016 20999 20994 21075 21187 21267 21292 21350 21382 21477 21534 21491 21461 21464 21408 21351 21261 21210 21206 21161 21131 21073 21040 21099 21106 21096 21095 21028 20970 20954 20909 20845 20765 20698 20656 20594 20509 20424 20329 20300 20302 20186 20100 20060 20002 19902 19885 19780 19765 19720 19719 19659 19628 19581 19586 19456 19374 19312 19266 19379 19396 19467 19536 19514 19540 19557 19564 19567 19517 19494 19449 19463 19493 19465 19407 19406 19407 19424 19428 19344 19271 19253 19223 19238 19207 19231 19318 19260 19249 19265 19290 19192 19139 19039 18913 18826 18760 18660 18538 18452 18429 18370 18395 18391 18398 18312 18285 18291 18274 18340 18340 18293 18289 18308 18250 18206 18193 18138 18093 18078 18001 17933 17902 17905 17879 17882 17912 17920 17974 17944 17951 17863 17832 17771 17785 17795 17741 17739 17776 17827 17802 17793 17808 17775 17802 17814 17845 17852 17848 17913 17963 17995 17991 18009 17969 17922 17908 17853 17842 17818 17835 17784 17765 17718 17686 17656 17536 17555 17486 17466 17469 17480 17475 17382 17325 17345 17327 17284 17240 17209 17173 17175 17163 17178 17177 17144 17156 17094 17023 16902 16768 16645 16522 16454 16338 16215 16088 16016 15906 15796 15685 15545 15449 15401 15343 15296 15239 15170 15149
18083 18145 18154 18121 18052 18001 17991 17872 17761 17713 17686 17626 17577 17536 17476 17453 17393 17411 17433 17328 17272 17273 17217 17169 17182 17149 17114 17152 17253 17330 17353 17311 17315 17326 17303 17305 17345 17383 17391 17389 17410 17417 17406 17473 17589 17613 17696 17726 17733 17697 17691 17770 17812 17838 17879 17969 18002 18087 18200 18241 18328 18457 18560 18683 18848 18939 19007 19151 19302 19399 19535 19680 19841 19936 20093 20196 20281 20431 20522 20568 20580 20611 20703 20755 20747 20703 20676 20799 20902 20993 21055 21041 20968 20912 20908 20928 20958 21015 21017 21058 21073 21173 21273 21326 21338 21407 21491 21501 21523 21563 21565 21611 21624 21583 21588 21671 21732 21802 21859 21982 22125 22235 22373 22431 22437 22448 22438 22567 22635 22684 22784 22855 22898 22884 22934 22950 23029 23079 23143 23156 23223 23306 23346 23411 23451 23427 23411 23438 23464 23542 23562 23620 23663 23728 23807 23890 23914 23958 24037 24025 24036 24085 24138 24106 24044 24030 24068 23974 23929 23886 23875 23945 24022 24103 24144 24133 24179 24211 24197 24151 24157 24219 24240 24241 24182 24220 24268 24195 24138 24125 24157 24142 24135 24128 24084 24039 23962 23864 23820 23739 23612 23541 23486 23447 23354 23339 23334 23325 23316 23314 23311 23269 23240 23172 23163 23192 23188 23218 23200 23157 23143 23109 23127 23100 23113 23096 23079 23082 23100 23037 22969 22931 22948 22861 22791 22780 22727 22661 22629 22595 22544 22562 22589 22577 22533 22451 22321 22309 22360 22344 22319 22295 22248 22232 22243 22283 22306 22285 22297 22235 22168 22067 22011 21910 21781 21730 21652 21620 21603 21534 21475 21390 21362 21329 21327 21253 21118 21035 20969 20902 20832 20749 20708 20775 20822 20919 21012 20971 20926 20923 20961 21036 21150 21202 21225 21314 21358 21396 21437 21429 21413 21353 21290 21250 21164 21113 21126 21132 21093 21045 21028 21047 21077 21062 20993 21035 21015 20937 20918 20866 20802 20728 20643 20557 20497 20396 20326 20285 20244 20157 20049 19939 19878 19794 19770 19706 19669 19646 19662 19581 19559 19550 19496 19422 19369 19262 19216 19309 19340 19420 19459 19467 19467 19511 19507 19461 19445 19413 19424 19452 19471 19427 19376 19378 19355 19376 19423 19312 19256 19263 19243 19251 19197 19242 19263 19259 19238 19277 19339 19223 19138 19017 18875 18843 18769 18652 18537 18478 18401 18370 18387 18411 18373 18293 18255 18254 18291 18331 18372 18348 18325 18305 18262 18288 18254 18202 18122 18047 18022 17922 17880 17891 17911 17946 17940 17989 17989 17954 17934 17881 17800 17787 17745 17745 17710 17674 17640 17719 17738 17713 17730 17692 17708 17709 17767 17746 17757 17839 17870 17881 17924 17911 17905 17904 17844 17850 17812 17789 17735 17735 17727 17669 17668 17628 17539 17537 17474 17420 17378 17431 17434 17400 17304 17330 17322 17281 17225 17211 17155 17203 17215 17197 17207 17222 17233 17128 17066 16925 16771 16658 16547 16438 16342 16230 16111 15990 15896 15752 15625 15511 15397 15354 15338 15280 15204 15118 15053
18180 18202 18203 18157 18077 18037 17985 17898 17796 17771 17764 17661 17604 17542 17447 17446 17402 17366 17400 17324 17298 17233 17189 17145 17131 17104 17109 17170 17266 17263 17311 17264 17240 17251 17267 17263 17250 17266 17297 17328 17321 17304 17324 17463 17548 17536 17603 17590 17618 17647 17629 17679 17734 17778 17848 17953 17983 18058 18160 18223 18285 18448 18534 18681 18816 18951 19037 19176 19297 19398 19567 19699 19883 20004 20120 20238 20345 20479 20558 20605 20646 20671 20729 20810 20808 20785 20761 20805 20895 20984 21023 21000 20974 20965 20990 20990 20984 21004 21047 21075 21098 21225 21281 21354 21377 21434 21474 21491 21525 21541 21590 21668 21668 21646 21647 21738 21761 21867 21943 22055 22188 22255 22374 22445 22472 22481 22469 22557 22682 22756 22811 22829 22836 22897 22879 22930 23044 23074 23169 23209 23273 23323 23365 23424 23444 23459 23462 23518 23564 23566 23613 23649 23719 23813 23867 23937 23995 24006 24085 24142 24151 24138 24197 24125 24079 24102 24091 24017 23943 23926 23955 24031 24100 24187 24256 24236 24250 24301 24320 24295 24234 24237 24260 24248 24263 24271 24269 24218 24187 24159 24165 24161 24192 24191 24155 24047 23996 23862 23804 23712 23662 23588 23564 23516 23467 23423 23387 23405 23348 23389 23402 23383 23329 23311 23242 23256 23217 23240 23262 23202 23171 23202 23206 23202 23171 23168 23148 23187 23165 23156 23094 23061 23006 22939 22879 22843 22814 22780 22705 22641 22604 22655 22668 22625 22584 22509 22400 22345 22327 22317 22300 22300 22250 22242 22218 22277 22266 22277 22292 22197 22155 22086 22045 21956 21864 21785 21653 21632 21604 21554 21519 21432 21398 21343 21337 21252 21138 21079 20989 20942 20871 20808 20708 20766 20860 20908 20955 20932 20925 20950 20914 21011 21076 21143 21167 21207 21265 21309 21320 21325 21299 21203 21154 21128 21053 20996 20990 20946 20964 20938 20951 20955 20962 20991 20942 20970 20970 20896 20880 20783 20722 20666 20629 20506 20423 20362 20270 20220 20155 20080 20025 19902 19864 19756 19681 19650 19610 19582 19549 19468 19427 19408 19350 19278 19247 19261 19189 19269 19289 19325 19341 19347 19396 19399 19429 19439 19398 19402 19394 19391 19418 19378 19389 19417 19366 19396 19428 19339 19277 19248 19239 19220 19177 19223 19243 19255 19198 19215 19287 19172 19060 18988 18873 18843 18772 18626 18505 18460 18415 18427 18386 18345 18344 18255 18254 18241 18265 18304 18357 18367 18316 18313 18235 18248 18258 18246 18140 18131 18060 17966 17913 17911 17914 17917 17959 17967 17958 17933 17903 17833 17806 17798 17762 17703 17712 17651 17614 17644 17640 17653 17582 17644 17690 17654 17684 17679 17695 17715 17738 17759 17825 17830 17868 17873 17808 17817 17752 17727 17711 17685 17661 17672 17614 17551 17455 17453 17412 17371 17339 17346 17335 17352 17310 17284 17279 17245 17226 17219 17152 17147 17193 17214 17235 17242 17238 17133 17039 16959 16871 16740 16594 16509 16372 16278 16132 15978 15906 15741 15604 15435 15306 15298 15287 15230 15211 15097 15025
18216 18191 18215 18123 18093 18064 18014 17932 17881 17846 17783 17667 17613 17533 17462 17429 17444 17367 17348 17303 17278 17246 17195 17152 17105 17144 17121 17195 17236 17254 17244 17211 17160 17184 17189 17184 17163 17196 17167 17192 17250 17269 17299 17387 17473 17483 17521 17535 17553 17563 17596 17655 17679 17787 17871 17896 17955 18013 18067 18199 18276 18407 18492 18664 18781 18933 19025 19128 19250 19417 19596 19742 19901 19999 20151 20258 20350 20472 20582 20650 20740 20767 20776 20830 20835 20855 20828 20886 20893 20985 21031 21011 20971 20985 21022 21023 20969 21001 21043 21121 21178 21256 21333 21373 21387 21402 21443 21539 21588 21616 21640 21683 21682 21724 21732 21773 21844 21936 21986 22127 22238 22310 22393 22476 22512 22506 22528 22627 22681 22749 22809 22802 22832 22868 22876 22919 23017 23091 23200 23273 23362 23358 23400 23395 23453 23474 23523 23575 23603 23649 23640 23744 23832 23885 23963 23969 24016 24071 24129 24205 24244 24220 24239 24170 24146 24125 24086 24037 24009 24016 24056 24116 24159 24218 24322 24364 24379 24378 24414 24383 24359 24316 24312 24310 24331 24315 24317 24301 24284 24228 24200 24178 24213 24219 24173 24085 23978 23898 23835 23761 23661 23612 23600 23590 23532 23479 23488 23459 23417 23432 23474 23421 23399 23410 23374 23293 23266 23244 23276 23255 23258 23296 23310 23243 23239 23227 23271 23279 23246 23232 23159 23110 23087 23067 23022 22935 22870 22826 22773 22721 22678 22694 22689 22694 22648 22586 22517 22449 22355 22343 22306 22280 22301 22275 22237 22267 22270 22267 22249 22196 22169 22105 22039 21955 21901 21795 21718 21636 21611 21576 21599 21494 21447 21406 21386 21244 21136 21096 21000 20952 20920 20857 20750 20810 20897 20935 20951 20938 20899 20918 20922 21000 21036 21117 21151 21173 21143 21175 21241 21185 21155 21054 21000 21004 20968 20893 20850 20812 20838 20859 20909 20891 20886 20944 20950 20965 20942 20867 20834 20777 20703 20632 20565 20426 20347 20281 20241 20160 20129 20052 19993 19890 19806 19720 19607 19575 19537 19493 19457 19391 19342 19276 19254 19186 19178 19225 19210 19260 19262 19241 19246 19251 19282 19316 19370 19345 19361 19357 19397 19409 19406 19403 19369 19419 19427 19411 19376 19322 19302 19277 19251 19185 19184 19231 19231 19215 19194 19226 19256 19139 19038 18968 18907 18817 18760 18621 18490 18476 18424 18416 18420 18353 18295 18253 18235 18276 18272 18303 18323 18356 18328 18302 18243 18290 18291 18282 18213 18162 18097 18055 17975 17955 17906 17952 17964 17917 17892 17926 17898 17835 17794 17795 17740 17716 17666 17581 17530 17536 17564 17560 17499 17558 17614 17629 17627 17609 17656 17640 17621 17689 17718 17770 17842 17810 17795 17747 17687 17717 17733 17717 17654 17640 17566 17482 17427 17391 17402 17355 17297 17308 17285 17298 17308 17303 17258 17244 17183 17178 17172 17152 17166 17240 17272 17267 17256 17140 17046 17002 16934 16820 16679 16533 16401 16293 16146 16002 15906 15739 15613 15441 15265 15218 15194 15176 15195 15122 15044
18154 18167 18230 18117 18051 18029 17973 17921 17889 17855 17798 17720 17648 17605 17574 17523 17462 17447 17364 17319 17249 17213 17173 17140 17127 17149 17135 17209 17222 17220 17165 17158 17136 17177 17216 17202 17152 17144 17157 17155 17249 17269 17293 17359 17415 17459 17504 17502 17504 17542 17520 17574 17643 17678 17739 17833 17844 17880 17961 18122 18256 18365 18451 18632 18755 18911 18999 19110 19200 19362 19517 19624 19784 19953 20089 20176 20270 20420 20527 20600 20672 20688 20720 20762 20769 20810 20787 20865 20870 20991 21045 21016 21027 21059 21070 21052 21011 21077 21107 21164 21239 21260 21321 21401 21413 21440 21532 21624 21662 21675 21648 21692 21756 21788 21773 21825 21865 21928 21992 22135 22282 22346 22437 22515 22566 22570 22580 22655 22707 22723 22821 22826 22849 22903 22952 22976 23081 23142 23188 23226 23268 23319 23353 23446 23507 23545 23556 23619 23667 23668 23677 23767 23896 23952 24022 23995 24040 24077 24073 24142 24198 24224 24218 24212 24188 24141 24056 24007 23991 24047 24053 24066 24094 24226 24331 24326 24347 24362 24340 24281 24310 24302 24302 24273 24326 24299 24276 24288 24287 24213 24209 24217 24191 24183 24167 24098 23997 23925 23788 23766 23702 23676 23643 23578 23584 23538 23505 23455 23468 23503 23500 23481 23423 23367 23366 23323 23308 23314 23310 23330 23326 23312 23326 23242 23234 23240 23279 23285 23273 23184 23173 23108 23125 23127 23069 22979 22905 22857 22818 22813 22761 22784 22783 22758 22722 22672 22599 22525 22460 22414 22353 22385 22397 22342 22294 22274 22269 22235 22246 22205 22162 22102 22061 21929 21884 21830 21768 21685 21599 21550 21582 21485 21423 21399 21372 21270 21154 21070 21009 20997 20935 20847 20807 20820 20850 20885 20951 20913 20886 20930 20924 20984 21032 21111 21105 21118 21107 21180 21210 21149 21145 21065 21033 20945 20905 20841 20819 20855 20831 20869 20947 20913 20883 20910 20974 20945 20949 20878 20848 20765 20746 20631 20583 20492 20358 20319 20305 20226 20118 20031 19943 19878 19775 19679 19613 19597 19496 19480 19447 19371 19357 19320 19237 19192 19181 19152 19157 19175 19246 19191 19208 19216 19304 19331 19320 19310 19349 19352 19388 19406 19376 19387 19344 19325 19333 19327 19297 19255 19252 19263 19189 19182 19193 19227 19225 19196 19204 19203 19226 19103 18977 18919 18843 18804 18738 18597 18504 18485 18427 18406 18432 18373 18329 18275 18290 18264 18259 18266 18295 18340 18314 18289 18241 18238 18270 18245 18153 18097 18067 18041 17977 17975 17909 17920 17944 17882 17872 17882 17833 17806 17814 17792 17702 17667 17603 17587 17511 17510 17564 17559 17525 17600 17614 17632 17642 17672 17665 17682 17670 17750 17760 17780 17813 17743 17715 17694 17658 17694 17708 17693 17671 17586 17543 17524 17445 17369 17347 17305 17245 17289 17283 17292 17274 17256 17212 17197 17145 17099 17098 17078 17077 17126 17154 17169 17175 17036 16930 16943 16865 16768 16621 16460 16375 16258 16090 15950 15877 15729 15582 15439 15304 15271 15284 15251 15194 15186 15132
18141 18152 18189 18069 18014 17990 17947 17890 17846 17841 17815 17757 17690 17660 17664 17619 17525 17499 17437 17321 17241 17232 17203 17138 17135 17172 17194 17202 17180 17137 17146 17137 17125 17159 17228 17205 17201 17167 17117 17149 17231 17225 17243 17338 17411 17416 17450 17487 17476 17509 17485 17507 17589 17601 17654 17744 17787 17804 17876 18010 18181 18332 18455 18599 18765 18898 18973 19031 19139 19298 19411 19554 19690 19881 20045 20112 20227 20312 20424 20478 20595 20616 20702 20723 20726 20777 20801 20822 20883 20992 21103 21070 21032 21088 21106 21085 21059 21089 21164 21243 21282 21340 21346 21396 21495 21524 21615 21700 21725 21699 21678 21750 21835 21803 21806 21883 21919 21956 22024 22177 22312 22407 22526 22549 22578 22616 22616 22638 22723 22727 22788 22808 22862 22934 22988 23018 23107 23106 23163 23207 23230 23307 23336 23427 23509 23525 23601 23624 23698 23711 23666 23807 23932 24023 24056 24044 24039 24059 24051 24137 24213 24196 24200 24160 24173 24072 24036 24000 24008 24018 24040 24067 24089 24182 24285 24307 24276 24260 24251 24218 24214 24241 24244 24254 24280 24272 24297 24276 24237 24218 24193 24211 24170 24199 24169 24076 23966 23902 23805 23784 23738 23725 23662 23594 23588 23570 23542 23497 23498 23505 23556 23508 23398 23385 23367 23358 23310 23344 23324 23338 23363 23342 23304 23250 23240 23284 23301 23251 23244 23187 23164 23121 23129 23123 23125 23080 22988 22935 22847 22885 22862 22864 22819 22760 22762 22705 22628 22587 22525 22514 22453 22478 22477 22461 22386 22320 22248 22234 22216 22204 22208 22119 22052 21936 21851 21780 21761 21652 21595 21555 21546 21512 21421 21404 21345 21280 21226 21128 21029 20972 20929 20890 20886 20866 20864 20863 20903 20886 20891 20879 20877 20929 21020 21080 21120 21111 21100 21157 21183 21155 21164 21061 21012 20932 20892 20877 20832 20875 20882 20930 20949 20917 20899 20942 20948 20918 20949 20867 20832 20774 20739 20664 20623 20490 20404 20382 20324 20223 20171 20027 19940 19821 19743 19686 19667 19596 19517 19512 19457 19385 19343 19332 19278 19230 19183 19094 19053 19095 19191 19177 19177 19216 19266 19276 19282 19310 19282 19305 19355 19403 19396 19363 19332 19322 19278 19284 19280 19216 19217 19212 19171 19171 19154 19159 19162 19159 19184 19208 19238 19098 18978 18914 18837 18780 18707 18574 18486 18481 18470 18441 18386 18388 18353 18334 18347 18328 18294 18305 18323 18297 18298 18238 18195 18227 18216 18182 18120 18126 18089 17994 17930 17937 17911 17930 17918 17847 17841 17832 17792 17764 17780 17768 17694 17641 17588 17547 17496 17544 17553 17573 17577 17623 17659 17662 17694 17702 17653 17709 17714 17760 17770 17814 17806 17706 17649 17626 17600 17587 17629 17662 17670 17600 17563 17527 17436 17365 17313 17297 17250 17245 17264 17248 17209 17234 17219 17145 17111 17062 17016 17055 17050 17034 17052 17073 17126 17027 16877 16856 16781 16643 16560 16431 16337 16225 16052 15918 15807 15704 15553 15470 15383 15336 15339 15298 15203 15177 15212
18071 18102 18164 18038 18007 17954 17920 17882 17854 17850 17846 17777 17761 17725 17734 17663 17519 17483 17431 17369 17278 17227 17217 17211 17225 17213 17183 17150 17151 17149 17090 17099 17104 17145 17196 17209 17194 17188 17147 17190 17219 17247 17259 17326 17353 17391 17428 17444 17500 17505 17490 17465 17551 17568 17558 17654 17697 17730 17815 17981 18171 18300 18369 18565 18696 18838 18991 19082 19143 19277 19352 19533 19682 19867 20029 20111 20180 20228 20351 20386 20446 20521 20606 20650 20699 20744 20823 20866 20906 20973 21073 21059 21058 21130 21151 21154 21147 21151 21225 21270 21311 21335 21389 21484 21531 21585 21693 21733 21767 21755 21741 21846 21872 21895 21899 21905 21991 22019 22086 22220 22361 22478 22549 22593 22600 22642 22619 22677 22761 22762 22811 22834 22880 22940 23031 23077 23066 23098 23123 23202 23254 23304 23319 23437 23504 23555 23625 23646 23690 23687 23698 23801 23949 23989 24053 24051 24062 24027 24066 24158 24208 24225 24201 24206 24200 24145 24082 24064 24052 24039 24000 24067 24097 24147 24239 24272 24262 24206 24192 24192 24192 24193 24205 24221 24281 24314 24315 24328 24253 24258 24258 24230 24246 24251 24223 24116 23970 23874 23818 23791 23683 23673 23653 23601 23616 23576 23583 23568 23500 23502 23551 23482 23419 23423 23378 23309 23278 23295 23344 23326 23365 23353 23352 23308 23286 23290 23278 23265 23246 23186 23205 23205 23187 23139 23106 23026 22995 22958 22868 22876 22849 22888 22893 22812 22808 22750 22703 22634 22600 22579 22530 22544 22513 22469 22433 22349 22329 22271 22265 22221 22208 22106 22046 21939 21861 21829 21757 21709 21633 21608 21541 21537 21465 21420 21384 21291 21212 21121 20997 20963 20924 20901 20915 20909 20940 20905 20886 20907 20910 20901 20905 20948 20983 21021 21079 21059 21079 21162 21159 21102 21105 21070 21036 20956 20917 20891 20804 20886 20883 20916 20971 20953 20885 20908 20883 20859 20882 20834 20773 20752 20756 20711 20671 20562 20456 20402 20376 20232 20156 20027 19957 19862 19756 19723 19692 19616 19548 19506 19492 19444 19386 19358 19270 19181 19096 19019 18966 19042 19103 19137 19196 19196 19238 19268 19228 19284 19260 19319 19337 19380 19390 19370 19299 19320 19298 19314 19273 19235 19256 19231 19184 19153 19164 19148 19127 19190 19222 19198 19216 19087 18975 18914 18841 18718 18623 18537 18475 18427 18393 18401 18368 18370 18390 18360 18394 18337 18317 18338 18356 18293 18296 18216 18136 18134 18138 18157 18096 18070 18026 17962 17901 17882 17866 17879 17838 17822 17804 17794 17800 17777 17735 17718 17624 17607 17594 17559 17511 17536 17564 17561 17573 17613 17683 17673 17697 17679 17626 17675 17704 17740 17765 17761 17764 17722 17650 17606 17547 17531 17571 17617 17644 17588 17541 17475 17409 17318 17252 17273 17259 17254 17237 17211 17145 17173 17151 17114 17077 17062 16967 16996 16942 16978 16967 16970 17031 16943 16838 16783 16718 16574 16513 16421 16308 16152 16011 15872 15776 15713 15579 15484 15419 15377 15340 15297 15224 15238 15270
17981 18031 18096 18035 18006 17972 17894 17895 17924 17890 17838 17777 17775 17790 17758 17672 17561 17503 17419 17357 17297 17271 17240 17249 17257 17200 17166 17168 17166 17118 17090 17083 17060 17094 17150 17178 17167 17121 17123 17129 17199 17236 17271 17282 17265 17326 17379 17440 17473 17439 17443 17439 17466 17481 17513 17536 17613 17671 17786 17980 18122 18226 18338 18521 18652 18799 18967 19051 19166 19246 19354 19484 19652 19834 19966 20011 20076 20165 20247 20296 20346 20445 20535 20561 20616 20720 20809 20914 20975 21017 21061 21088 21134 21153 21207 21177 21173 21231 21267 21308 21367 21414 21403 21529 21598 21641 21723 21794 21820 21821 21838 21913 21927 21948 21958 21963 22021 22109 22179 22316 22423 22535 22604 22620 22645 22653 22628 22707 22775 22784 22799 22861 22930 23002 23081 23084 23068 23093 23137 23202 23273 23321 23330 23418 23507 23603 23666 23692 23720 23744 23755 23826 23954 23994 24052 24011 24033 24048 24090 24153 24163 24183 24239 24211 24193 24149 24081 24109 24090 24024 24003 24035 24057 24157 24197 24226 24210 24152 24115 24112 24128 24188 24200 24254 24253 24317 24345 24368 24329 24295 24290 24282 24292 24278 24234 24111 23969 23885 23802 23763 23678 23665 23644 23644 23603 23607 23645 23591 23544 23543 23557 23516 23473 23432 23340 23350 23298 23293 23310 23294 23340 23375 23422 23330 23284 23254 23242 23229 23198 23198 23254 23226 23207 23149 23130 23028 22975 22943 22934 22878 22868 22867 22929 22918 22860 22831 22813 22755 22690 22674 22660 22616 22578 22539 22511 22435 22353 22322 22308 22238 22174 22140 22086 22024 21932 21884 21788 21702 21620 21583 21566 21529 21478 21445 21392 21269 21184 21120 21000 20984 20946 20945 20978 20990 20970 20959 20904 20870 20886 20905 20931 20940 21001 21030 21039 21072 21109 21141 21123 21097 21106 21081 21015 20963 20882 20862 20811 20884 20936 20943 20989 20930 20928 20918 20855 20860 20845 20784 20769 20783 20792 20777 20705 20593 20498 20450 20371 20271 20203 20069 19976 19902 19799 19748 19688 19628 19624 19579 19569 19448 19392 19346 19264 19174 19056 19012 18939 18965 19037 19100 19157 19197 19224 19206 19215 19266 19268 19322 19319 19356 19333 19319 19327 19285 19284 19299 19268 19251 19245 19182 19154 19191 19180 19157 19154 19191 19204 19179 19204 19128 19001 18921 18888 18740 18585 18472 18405 18378 18338 18324 18318 18348 18405 18399 18438 18415 18355 18355 18387 18349 18289 18160 18072 18088 18087 18133 18119 18087 18022 17901 17826 17850 17835 17817 17752 17811 17829 17837 17794 17718 17663 17632 17570 17571 17619 17595 17565 17542 17521 17561 17572 17601 17665 17661 17653 17662 17639 17673 17747 17771 17781 17759 17694 17664 17645 17612 17520 17507 17507 17543 17609 17542 17521 17452 17351 17270 17234 17219 17209 17186 17197 17157 17127 17098 17103 17072 17071 17051 16977 16914 16897 16883 16882 16932 16940 16836 16744 16657 16619 16500 16443 16366 16304 16168 16031 15892 15799 15743 15640 15540 15468 15461 15397 15304 15258 15306 15302
17930 17948 18023 18006 17958 17939 17900 17906 17919 17927 17933 17869 17858 17857 17793 17691 17620 17507 17455 17388 17383 17301 17238 17272 17259 17232 17157 17162 17149 17110 17123 17104 17098 17107 17151 17191 17210 17142 17155 17166 17217 17198 17221 17294 17284 17287 17296 17356 17439 17391 17378 17417 17398 17464 17506 17540 17583 17654 17790 17939 18097 18164 18271 18425 18555 18668 18837 19017 19115 19228 19364 19474 19619 19800 19954 20024 20073 20128 20236 20265 20317 20415 20454 20552 20616 20712 20778 20873 20932 21000 21027 21041 21137 21202 21239 21223 21208 21286 21324 21361 21392 21427 21457 21543 21635 21658 21735 21812 21863 21885 21892 21932 21986 21984 22006 22056 22084 22116 22193 22330 22405 22500 22617 22646 22663 22656 22700 22761 22824 22822 22784 22855 22912 22960 23027 23047 23097 23147 23218 23231 23290 23356 23359 23422 23486 23603 23668 23677 23705 23729 23805 23851 23954 23994 24069 24068 24053 24018 24016 24061 24103 24126 24205 24210 24184 24093 24030 24097 24104 24012 23982 24047 24064 24099 24143 24154 24207 24152 24118 24149 24192 24198 24214 24300 24325 24354 24377 24372 24404 24350 24311 24282 24302 24301 24247 24123 24014 23879 23759 23722 23672 23658 23629 23621 23654 23679 23681 23606 23587 23568 23597 23549 23517 23417 23349 23318 23330 23325 23384 23385 23350 23355 23415 23345 23308 23296 23251 23239 23265 23236 23223 23206 23214 23162 23097 23013 22972 22914 22906 22919 22909 22938 22985 22940 22916 22893 22835 22839 22792 22793 22770 22697 22626 22605 22557 22468 22386 22342 22296 22251 22165 22096 22037 21941 21886 21852 21750 21665 21654 21604 21533 21483 21466 21367 21340 21221 21169 21092 21000 20962 20958 20976 20979 20992 20990 20971 20918 20912 20957 20987 20979 20946 20982 20989 21032 21020 21081 21153 21166 21125 21095 21074 20999 20935 20931 20913 20866 20891 20946 20938 20974 20942 20922 20909 20858 20821 20847 20830 20806 20792 20793 20714 20669 20576 20551 20435 20369 20282 20233 20119 20020 19972 19886 19773 19711 19688 19656 19625 19545 19442 19360 19278 19238 19130 19070 19019 18946 18987 18987 19069 19078 19109 19210 19179 19149 19163 19194 19225 19270 19246 19263 19241 19218 19208 19216 19232 19250 19229 19216 19121 19102 19147 19162 19115 19130 19163 19182 19178 19211 19122 18979 18918 18826 18711 18585 18502 18417 18398 18332 18311 18351 18397 18435 18418 18471 18438 18366 18390 18384 18321 18204 18156 18061 18043 18041 18082 18100 18038 18017 17885 17798 17801 17768 17742 17747 17774 17846 17810 17777 17713 17668 17612 17538 17559 17600 17571 17516 17492 17482 17529 17546 17582 17623 17578 17620 17615 17624 17690 17732 17747 17707 17695 17644 17661 17675 17566 17530 17500 17510 17521 17534 17506 17467 17408 17352 17254 17211 17195 17167 17119 17101 17115 17086 17058 17023 17034 16994 16985 16950 16890 16870 16836 16823 16853 16907 16814 16726 16668 16616 16499 16439 16355 16254 16114 15961 15917 15784 15733 15628 15535 15453 15457 15417 15356 15269 15314 15315
17832 17895 17905 17917 17886 17888 17925 17930 17934 18001 18023 17937 17890 17890 17886 17762 17652 17574 17447 17439 17420 17354 17284 17254 17259 17245 17194 17170 17136 17149 17169 17116 17084 17113 17119 17146 17206 17189 17175 17203 17194 17187 17230 17275 17289 17290 17271 17340 17393 17379 17372 17348 17373 17449 17483 17509 17592 17657 17760 17905 18026 18127 18166 18313 18477 18597 18769 18941 19063 19178 19342 19486 19645 19787 19914 19988 20089 20159 20226 20275 20276 20375 20435 20504 20611 20682 20811 20820 20850 20928 20997 21015 21098 21193 21248 21249 21272 21336 21439 21427 21467 21505 21564 21601 21628 21715 21798 21845 21903 21903 21953 21974 21986 22054 22082 22068 22111 22197 22233 22336 22451 22527 22568 22627 22637 22707 22715 22761 22829 22830 22829 22889 22931 22970 23021 23078 23188 23201 23237 23282 23284 23334 23416 23462 23477 23583 23659 23664 23696 23774 23839 23903 24017 24077 24113 24111 24088 24042 24004 24023 24100 24140 24137 24133 24119 24088 24020 24030 24094 24030 24008 24041 24034 24087 24127 24115 24167 24121 24116 24139 24222 24216 24252 24325 24368 24432 24439 24457 24473 24445 24381 24332 24296 24272 24206 24102 24025 23897 23776 23753 23694 23638 23609 23678 23692 23685 23675 23666 23611 23630 23611 23587 23572 23471 23418 23365 23377 23403 23423 23427 23416 23388 23395 23362 23373 23306 23256 23278 23316 23273 23214 23182 23186 23113 23104 23031 22920 22903 22873 22902 22947 22971 23042 22986 22943 22942 22910 22875 22900 22878 22820 22741 22683 22609 22599 22533 22468 22385 22313 22221 22098 22012 21958 21899 21857 21816 21739 21672 21641 21607 21525 21474 21405 21309 21278 21223 21216 21122 21024 21013 20957 20966 21010 21036 21002 21003 20974 20973 20981 20992 20987 20952 20970 21009 21030 21026 21081 21112 21173 21150 21089 21053 21002 20962 20930 20917 20875 20874 20930 20961 20965 20970 20949 20870 20836 20818 20788 20812 20809 20764 20734 20702 20633 20613 20544 20495 20412 20361 20307 20184 20083 20011 19914 19872 19779 19755 19721 19628 19537 19454 19333 19291 19226 19157 19072 18994 18936 18994 18996 19009 19029 19071 19151 19121 19083 19074 19108 19166 19179 19174 19154 19175 19148 19122 19122 19134 19204 19174 19125 19067 19063 19117 19148 19134 19072 19130 19186 19183 19174 19084 18999 18865 18787 18703 18614 18508 18433 18392 18364 18348 18358 18408 18465 18496 18465 18433 18353 18344 18337 18238 18158 18089 18033 17992 18016 18038 18029 18018 17955 17893 17808 17802 17747 17738 17739 17777 17813 17800 17727 17688 17677 17587 17561 17559 17563 17520 17494 17475 17500 17502 17531 17532 17530 17529 17593 17620 17598 17661 17669 17656 17611 17619 17642 17638 17648 17573 17493 17531 17525 17505 17502 17482 17403 17363 17340 17245 17212 17174 17090 17089 17061 17017 17022 17023 17006 17001 16979 16941 16933 16881 16848 16803 16803 16826 16816 16748 16734 16662 16592 16505 16407 16307 16200 16087 15936 15909 15831 15742 15653 15582 15502 15441 15388 15339 15327 15306 15345
17789 17812 17832 17859 17926 17940 17954 17942 17985 18010 18028 18019 17951 17914 17920 17769 17708 17606 17505 17491 17477 17410 17349 17320 17299 17244 17198 17209 17180 17203 17202 17186 17126 17135 17100 17177 17194 17167 17176 17220 17229 17209 17163 17188 17214 17226 17247 17313 17333 17341 17306 17310 17287 17372 17461 17532 17571 17619 17668 17808 17953 18045 18102 18242 18446 18595 18730 18913 19060 19205 19378 19524 19641 19791 19946 19980 20064 20124 20203 20239 20275 20359 20374 20439 20550 20610 20721 20786 20831 20904 21020 21057 21138 21189 21274 21324 21343 21433 21462 21489 21524 21556 21571 21618 21724 21802 21841 21877 21904 21967 22006 22017 22074 22151 22173 22179 22225 22252 22284 22358 22418 22540 22586 22668 22686 22710 22693 22745 22828 22891 22916 22901 22946 23018 23062 23090 23189 23219 23255 23284 23277 23326 23410 23472 23484 23577 23695 23682 23740 23853 23900 23927 24015 24031 24093 24059 24078 24039 24030 24054 24079 24077 24059 24051 24063 24033 24042 24023 24039 24014 24019 24047 24039 24094 24116 24118 24137 24123 24066 24147 24241 24243 24313 24370 24388 24442 24458 24434 24460 24483 24441 24425 24396 24302 24270 24123 24037 23932 23804 23793 23759 23700 23615 23660 23735 23729 23664 23658 23596 23608 23580 23532 23547 23562 23519 23460 23423 23429 23476 23479 23451 23416 23389 23404 23354 23321 23291 23337 23319 23308 23261 23189 23169 23126 23054 23011 22937 22927 22898 22948 23002 23002 23041 22969 22960 22984 22956 22932 22972 22918 22887 22771 22704 22646 22597 22514 22481 22375 22289 22212 22104 21964 21902 21863 21829 21766 21667 21656 21586 21575 21511 21479 21407 21321 21235 21244 21218 21137 21088 21040 21013 21027 20995 21017 20989 20975 20989 21006 21012 21026 21006 20996 20952 21004 21043 21094 21093 21089 21152 21153 21096 21053 21048 21021 20966 20950 20929 20969 21014 21009 21005 20983 20968 20922 20914 20883 20809 20850 20817 20794 20761 20736 20622 20621 20555 20536 20444 20364 20280 20204 20114 20053 19994 19960 19865 19765 19707 19658 19565 19476 19316 19250 19174 19053 18976 18981 18928 18956 18958 18998 18990 19013 19075 19078 19026 19039 19040 19067 19065 19073 19059 19075 19124 19101 19076 19086 19090 19070 19042 19026 18975 19064 19099 19080 19059 19128 19171 19205 19168 19073 18964 18894 18790 18700 18613 18579 18498 18484 18402 18441 18406 18469 18495 18493 18464 18430 18371 18311 18292 18211 18175 18071 17953 17937 17959 17982 17937 17888 17870 17791 17763 17748 17735 17783 17777 17790 17766 17796 17774 17743 17660 17603 17598 17585 17555 17522 17475 17475 17473 17501 17484 17524 17553 17571 17628 17650 17606 17577 17594 17616 17629 17626 17684 17664 17656 17588 17527 17537 17533 17497 17444 17435 17335 17335 17316 17237 17133 17113 17035 17054 16998 16999 16951 16903 16915 16905 16885 16849 16823 16817 16778 16767 16717 16796 16793 16689 16633 16595 16545 16423 16337 16221 16142 16036 15924 15913 15841 15717 15607 15546 15510 15468 15392 15367 15365 15342 15294
17770 17789 17811 17878 17931 17934 17930 17985 18025 18068 18097 18043 18029 17961 17899 17808 17759 17638 17564 17521 17492 17427 17384 17386 17335 17234 17192 17183 17171 17171 17213 17205 17226 17190 17117 17159 17160 17176 17222 17197 17221 17202 17149 17135 17174 17190 17245 17291 17301 17273 17264 17280 17261 17311 17382 17466 17552 17616 17633 17705 17834 17990 18102 18229 18392 18513 18685 18882 19080 19253 19364 19536 19692 19822 19929 20042 20100 20123 20170 20205 20263 20331 20354 20392 20486 20598 20689 20756 20860 20966 21040 21132 21195 21236 21333 21399 21450 21518 21550 21584 21600 21606 21609 21689 21774 21827 21921 21953 21962 22066 22123 22136 22164 22204 22233 22267 22323 22300 22312 22388 22410 22528 22636 22674 22686 22704 22678 22791 22876 22949 22974 22973 23021 23057 23050 23140 23174 23210 23276 23322 23325 23339 23398 23487 23554 23598 23695 23734 23801 23909 23967 23979 23995 24013 24076 24044 24036 24048 24027 24058 24042 24037 23987 24018 24036 24042 24083 24041 24029 23990 24003 24065 24102 24119 24115 24110 24118 24059 24052 24160 24240 24312 24389 24454 24458 24497 24482 24470 24504 24508 24508 24481 24454 24350 24299 24203 24100 24019 23877 23880 23828 23721 23669 23704 23716 23724 23715 23638 23601 23600 23560 23535 23560 23592 23625 23543 23505 23477 23480 23479 23457 23395 23397 23408 23383 23386 23356 23384 23383 23314 23287 23188 23095 23090 23028 22993 22920 22946 22919 22957 23004 23040 23036 22977 22971 22979 22995 22993 22998 22941 22946 22812 22724 22642 22607 22566 22477 22335 22227 22153 22071 21965 21850 21833 21765 21722 21645 21598 21586 21525 21527 21457 21350 21282 21232 21249 21225 21183 21113 21088 21096 21042 20964 20927 20936 20914 20946 20981 21030 21004 20993 21002 20955 21022 21042 21097 21099 21115 21104 21101 21071 21083 21070 21023 20977 20967 20972 21017 21037 21029 20994 20999 20974 20947 20931 20922 20892 20864 20844 20826 20805 20752 20667 20602 20602 20562 20517 20422 20300 20209 20161 20078 20051 19993 19921 19806 19740 19661 19592 19461 19334 19236 19111 19023 18938 18914 18868 18930 18951 18998 18993 19011 19042 19020 18981 18980 19005 18936 18923 18950 19015 19030 19055 19086 19065 19074 19026 18988 18965 18933 18920 18976 19071 19103 19106 19178 19210 19217 19194 19104 18966 18901 18798 18695 18638 18576 18552 18547 18501 18508 18499 18531 18548 18507 18498 18455 18426 18366 18286 18226 18130 18054 17937 17916 17877 17888 17866 17807 17785 17721 17666 17685 17752 17758 17818 17801 17746 17776 17774 17751 17686 17661 17649 17589 17510 17441 17401 17454 17484 17512 17481 17528 17528 17588 17604 17626 17616 17573 17554 17569 17606 17620 17673 17674 17680 17653 17593 17561 17481 17445 17428 17383 17302 17286 17263 17209 17114 17048 17035 17011 16990 16943 16838 16832 16798 16800 16840 16829 16763 16726 16729 16712 16688 16737 16769 16698 16592 16534 16450 16306 16216 16140 16051 15936 15884 15875 15837 15759 15621 15523 15460 15424 15374 15364 15380 15350 15299
17729 17801 17806 17815 17854 17880 17913 17936 18035 18054 18045 17954 17923 17888 17856 17782 17711 17609 17521 17463 17456 17377 17358 17347 17315 17231 17214 17192 17184 17210 17211 17212 17234 17170 17110 17115 17145 17185 17213 17174 17176 17126 17068 17065 17096 17168 17213 17254 17257 17277 17237 17294 17308 17334 17413 17430 17516 17543 17640 17714 17789 17965 18102 18246 18364 18545 18724 18863 19063 19214 19362 19517 19695 19816 19886 19989 20043 20069 20135 20173 20254 20293 20357 20377 20442 20564 20607 20704 20795 20867 20992 21099 21187 21202 21267 21343 21371 21478 21518 21555 21603 21654 21668 21734 21758 21841 21944 22000 22018 22094 22183 22193 22174 22231 22306 22306 22376 22338 22354 22436 22463 22571 22627 22671 22701 22723 22730 22818 22940 22947 22986 23015 23106 23152 23133 23211 23236 23318 23401 23423 23410 23397 23437 23539 23622 23672 23710 23762 23854 23918 23959 23960 23992 24018 24088 24079 24091 24062 24013 24030 24065 24006 24005 24037 24060 24051 24073 24052 23987 24011 24016 24043 24053 24084 24128 24094 24122 24090 24078 24128 24209 24297 24346 24412 24436 24436 24485 24455 24522 24519 24485 24434 24434 24396 24357 24220 24064 23996 23859 23860 23842 23797 23792 23789 23792 23794 23754 23736 23698 23652 23659 23622 23584 23593 23612 23556 23497 23509 23529 23530 23491 23414 23417 23425 23431 23443 23429 23429 23350 23335 23281 23191 23120 23074 23052 23030 22960 22994 23041 23035 23071 23079 23104 23052 23049 23038 23031 23052 22987 22972 22984 22876 22789 22731 22642 22553 22483 22340 22241 22154 22047 21922 21843 21840 21770 21749 21682 21607 21608 21568 21557 21500 21409 21355 21295 21297 21293 21238 21139 21159 21153 21038 20972 20921 20881 20926 20953 20967 21030 21047 21047 21045 20996 20986 21002 21047 21030 21041 21080 21073 21091 21091 21114 21050 20982 20962 20904 20941 20992 20949 20981 20968 20966 20900 20895 20855 20822 20833 20809 20776 20712 20643 20559 20565 20531 20456 20433 20358 20251 20157 20098 20065 20062 19967 19908 19820 19714 19642 19586 19474 19346 19278 19198 19085 18948 18944 18875 18871 18876 18902 18928 18935 18947 18944 18937 18971 18943 18903 18918 18968 19025 18976 19002 18997 19027 19012 18993 18996 18967 18950 18874 18985 19040 19036 19079 19103 19130 19170 19195 19095 18929 18867 18781 18728 18607 18542 18524 18509 18504 18519 18501 18545 18541 18510 18499 18463 18407 18378 18287 18181 18078 18029 17933 17897 17877 17859 17861 17884 17867 17758 17689 17708 17777 17772 17807 17773 17721 17767 17742 17735 17690 17660 17632 17576 17538 17488 17432 17462 17467 17437 17435 17475 17497 17514 17550 17512 17537 17466 17442 17470 17551 17583 17667 17607 17640 17610 17560 17539 17479 17460 17429 17351 17339 17291 17258 17190 17100 17064 17037 17001 17030 16932 16846 16846 16792 16816 16819 16804 16752 16716 16708 16680 16684 16694 16728 16663 16597 16509 16405 16266 16184 16135 16023 15949 15873 15880 15814 15762 15701 15580 15498 15418 15370 15402 15373 15321 15286
17717 17760 17752 17821 17841 17872 17883 17935 18014 18009 18004 17927 17874 17881 17837 17729 17654 17577 17489 17405 17381 17358 17281 17237 17256 17227 17208 17158 17173 17154 17157 17176 17202 17135 17093 17147 17144 17173 17190 17204 17166 17105 17005 17050 17073 17113 17141 17194 17252 17271 17241 17304 17371 17397 17424 17441 17469 17509 17612 17708 17798 17936 18083 18252 18360 18557 18722 18908 19054 19208 19367 19495 19647 19797 19891 19938 19951 20000 20071 20171 20209 20295 20361 20407 20402 20521 20587 20643 20741 20829 20942 21032 21133 21162 21246 21297 21320 21460 21545 21547 21609 21634 21695 21730 21767 21866 21960 22002 22078 22161 22189 22169 22194 22267 22325 22374 22401 22429 22431 22498 22572 22616 22635 22687 22712 22752 22765 22881 22959 23012 23042 23078 23138 23217 23252 23315 23357 23418 23497 23459 23460 23463 23504 23568 23647 23713 23748 23826 23871 23881 23935 23960 24041 24072 24109 24075 24100 24048 24049 24067 24071 24019 23986 23978 24033 24017 24019 23986 23959 23977 23980 23997 23994 24065 24079 24083 24103 24111 24094 24136 24183 24232 24291 24309 24378 24433 24453 24446 24496 24488 24419 24430 24415 24376 24366 24196 24078 24007 23906 23892 23905 23858 23871 23852 23817 23782 23789 23777 23744 23749 23703 23669 23646 23587 23569 23557 23535 23541 23557 23562 23522 23460 23408 23470 23500 23456 23465 23438 23373 23350 23265 23236 23157 23072 23045 23034 23026 23047 23105 23095 23090 23144 23208 23160 23155 23119 23106 23090 23025 23020 23079 22982 22833 22776 22702 22590 22475 22356 22276 22192 22046 21945 21861 21862 21824 21732 21681 21656 21673 21648 21594 21511 21445 21433 21371 21324 21306 21286 21224 21218 21166 21044 20986 20939 20886 20903 20916 20993 21072 21089 21097 21049 21006 21002 20989 20986 21012 21042 21070 21115 21144 21112 21119 21042 20935 20935 20898 20894 20889 20876 20908 20870 20896 20860 20865 20831 20778 20781 20734 20695 20642 20596 20496 20518 20501 20403 20349 20270 20251 20145 20081 20063 20028 19998 19913 19776 19662 19567 19521 19414 19349 19270 19228 19127 18989 18926 18879 18854 18813 18817 18821 18840 18889 18885 18918 18915 18908 18913 18882 18937 18976 18942 18944 18971 18992 18979 18988 18950 18965 18908 18860 18941 18977 18997 19081 19067 19086 19115 19140 19039 18948 18873 18788 18712 18599 18508 18472 18488 18456 18456 18518 18530 18543 18544 18531 18474 18387 18333 18265 18135 18066 18025 17985 17933 17918 17923 17916 17879 17897 17799 17743 17785 17820 17795 17765 17725 17689 17720 17704 17659 17672 17610 17609 17560 17550 17502 17411 17432 17402 17397 17368 17399 17426 17419 17471 17453 17476 17401 17359 17413 17517 17583 17630 17576 17548 17499 17476 17460 17443 17413 17411 17350 17327 17261 17240 17127 17073 17039 17020 17046 17015 16949 16837 16819 16848 16809 16787 16773 16748 16712 16730 16712 16708 16718 16697 16618 16554 16454 16387 16276 16215 16112 15961 15948 15882 15836 15797 15778 15721 15625 15566 15496 15419 15412 15374 15315 15251
17760 17796 17792 17851 17849 17847 17868 17907 18001 17999 17965 17921 17881 17834 17768 17713 17633 17534 17427 17412 17329 17293 17259 17197 17191 17163 17188 17166 17138 17160 17132 17104 17158 17100 17050 17073 17118 17132 17170 17114 17057 17057 17009 17034 17044 17042 17077 17177 17258 17286 17244 17325 17364 17412 17420 17438 17476 17490 17602 17685 17803 17990 18141 18263 18385 18504 18671 18844 19022 19187 19343 19501 19622 19782 19853 19890 19924 20016 20040 20136 20255 20314 20359 20365 20384 20467 20534 20662 20728 20818 20862 20976 21044 21091 21166 21261 21294 21406 21568 21572 21617 21674 21712 21734 21840 21897 21944 22005 22093 22185 22194 22258 22244 22331 22393 22463 22487 22450 22482 22508 22573 22620 22598 22647 22685 22699 22791 22827 22913 22994 23058 23132 23159 23269 23330 23347 23438 23514 23543 23580 23569 23578 23613 23674 23702 23756 23813 23832 23917 23935 23933 24013 24038 24131 24152 24109 24164 24080 24045 24015 24063 24052 24052 23996 24026 23962 23947 23910 23942 23949 23910 23996 24033 24077 24067 24109 24133 24096 24107 24164 24173 24231 24298 24306 24360 24408 24439 24397 24406 24420 24363 24378 24390 24402 24341 24259 24126 24042 23974 23940 23921 23960 23963 23948 23905 23859 23825 23834 23770 23745 23737 23723 23665 23610 23592 23594 23591 23540 23548 23527 23543 23506 23472 23507 23518 23559 23557 23522 23456 23403 23321 23276 23224 23164 23093 23073 23087 23096 23155 23116 23125 23196 23258 23211 23247 23208 23196 23154 23116 23087 23114 23050 22887 22840 22713 22607 22503 22418 22366 22267 22138 22038 21887 21882 21835 21754 21676 21671 21648 21608 21625 21551 21487 21446 21410 21337 21323 21332 21275 21189 21120 21060 20983 20970 20890 20878 20903 20936 21032 21027 21082 21032 21011 20977 20966 21027 21030 21086 21079 21082 21148 21094 21081 20968 20910 20868 20879 20893 20851 20849 20816 20841 20855 20842 20848 20785 20676 20630 20610 20577 20571 20533 20437 20440 20431 20349 20305 20268 20177 20095 20050 20007 19932 19904 19908 19796 19641 19619 19534 19464 19374 19315 19284 19176 19018 18973 18914 18892 18832 18783 18805 18785 18820 18825 18839 18867 18861 18860 18886 18910 18954 18953 18937 18911 18935 18978 18970 18941 18909 18899 18852 18926 18964 19015 19048 19051 19039 19132 19145 19025 18925 18861 18786 18717 18619 18514 18459 18475 18457 18473 18566 18556 18514 18496 18506 18420 18378 18284 18191 18125 18063 18002 17963 17959 17955 17935 17933 17898 17932 17818 17787 17833 17844 17784 17698 17672 17662 17668 17682 17638 17655 17592 17560 17520 17534 17481 17375 17370 17411 17352 17313 17362 17440 17419 17435 17383 17395 17360 17286 17348 17444 17489 17543 17459 17439 17447 17413 17385 17382 17386 17352 17285 17279 17206 17223 17133 17106 17045 17047 17026 17046 16967 16859 16859 16872 16794 16782 16762 16801 16722 16728 16692 16656 16665 16662 16554 16513 16399 16335 16218 16172 16110 16011 15976 15907 15878 15796 15759 15757 15700 15622 15572 15465 15402 15370 15281 15241
17750 17759 17778 17829 17871 17884 17877 17914 17941 17942 17936 17884 17875 17806 17697 17652 17604 17497 17396 17370 17288 17226 17215 17194 17153 17141 17181 17179 17157 17120 17087 17078 17110 17059 17072 17066 17103 17080 17094 17026 17012 16995 16954 16985 17023 17019 17070 17137 17228 17263 17296 17321 17338 17414 17444 17487 17482 17498 17572 17713 17853 17991 18165 18269 18361 18478 18649 18807 18975 19154 19323 19476 19609 19756 19853 19890 19902 20013 20074 20181 20258 20291 20339 20375 20375 20448 20527 20620 20721 20759 20821 20899 20933 21015 21090 21217 21282 21398 21555 21565 21623 21683 21712 21770 21864 21889 21917 21986 22090 22181 22263 22305 22345 22372 22448 22490 22527 22496 22485 22554 22579 22619 22621 22664 22663 22690 22757 22826 22925 23014 23104 23172 23194 23287 23398 23428 23507 23588 23644 23701 23736 23704 23720 23776 23782 23841 23892 23872 23914 23969 23990 24067 24086 24150 24236 24175 24171 24097 24017 24000 24028 24029 24067 24012 23962 23917 23847 23868 23892 23867 23879 23957 24034 24028 24086 24137 24171 24160 24154 24175 24174 24239 24259 24313 24379 24415 24436 24394 24381 24389 24349 24408 24405 24384 24361 24260 24121 24080 24006 24013 23988 24033 24032 24004 23976 23946 23866 23874 23856 23803 23739 23712 23711 23668 23620 23626 23595 23572 23600 23576 23582 23553 23525 23532 23546 23592 23625 23573 23484 23410 23340 23302 23261 23156 23080 23107 23197 23224 23192 23172 23206 23279 23344 23293 23283 23260 23257 23202 23173 23148 23183 23106 22976 22866 22785 22692 22553 22508 22444 22346 22222 22088 21955 21877 21843 21789 21691 21681 21637 21604 21607 21550 21554 21496 21438 21412 21397 21390 21321 21217 21124 21064 21030 20992 20930 20918 20908 20946 21042 21029 21078 21041 20960 20942 20931 21026 21075 21073 21109 21090 21109 21063 21042 20968 20905 20879 20859 20859 20833 20795 20734 20757 20821 20802 20833 20724 20605 20564 20500 20469 20479 20443 20387 20370 20332 20332 20293 20229 20152 20099 19998 19945 19867 19833 19864 19784 19654 19613 19558 19461 19424 19380 19283 19169 19068 18993 18939 18914 18854 18804 18744 18780 18766 18754 18786 18760 18766 18789 18845 18914 18935 18902 18918 18896 18863 18920 18934 18871 18859 18906 18902 18897 18917 18953 19019 19058 19046 19114 19121 19016 18879 18847 18753 18725 18653 18554 18492 18490 18477 18542 18570 18554 18499 18461 18450 18361 18334 18231 18171 18121 18047 18014 17984 17989 17976 17941 17961 17952 17927 17851 17812 17795 17808 17769 17696 17696 17700 17714 17723 17680 17576 17561 17558 17517 17535 17472 17386 17348 17372 17326 17322 17342 17414 17416 17453 17372 17328 17286 17265 17347 17426 17459 17485 17407 17362 17343 17361 17324 17289 17306 17276 17205 17197 17172 17156 17151 17120 17109 17078 17045 17046 16997 16942 16949 16931 16839 16797 16823 16801 16753 16719 16626 16594 16585 16591 16525 16447 16368 16297 16205 16099 16071 16000 15932 15923 15903 15832 15789 15771 15709 15623 15597 15517 15473 15393 15273 15213
17699 17763 17777 17756 17785 17800 17804 17864 17869 17924 17943 17867 17841 17766 17733 17663 17576 17488 17411 17365 17337 17297 17291 17261 17202 17249 17221 17238 17199 17137 17121 17144 17127 17099 17117 17102 17085 17062 17021 16985 16971 16923 16929 16969 17055 17032 17066 17157 17213 17274 17272 17354 17386 17410 17449 17460 17507 17546 17569 17722 17874 17983 18122 18193 18299 18465 18669 18795 18953 19126 19289 19405 19564 19674 19772 19789 19874 19933 20015 20107 20201 20230 20256 20364 20380 20465 20503 20618 20715 20787 20816 20892 20963 20990 21050 21166 21303 21405 21569 21585 21641 21639 21691 21791 21869 21904 21974 22041 22174 22214 22266 22339 22329 22385 22465 22493 22514 22515 22519 22556 22636 22681 22692 22722 22723 22753 22773 22824 22943 23009 23138 23198 23231 23345 23425 23455 23538 23589 23683 23685 23728 23735 23740 23809 23878 23906 23919 23962 23980 24038 24018 24046 24070 24166 24238 24204 24135 24087 24020 24044 24053 24024 24079 23983 23949 23871 23806 23858 23861 23896 23915 23954 24043 24069 24127 24137 24195 24189 24172 24168 24185 24227 24269 24344 24360 24416 24447 24446 24436 24406 24409 24373 24384 24336 24344 24274 24149 24110 24068 24072 24032 24059 24108 24015 24004 23938 23886 23871 23857 23802 23768 23795 23767 23728 23712 23697 23696 23689 23685 23671 23668 23681 23633 23679 23654 23672 23697 23657 23550 23459 23411 23375 23313 23266 23163 23200 23241 23223 23211 23220 23302 23344 23385 23301 23311 23284 23313 23272 23260 23232 23233 23119 23033 22971 22905 22769 22688 22590 22552 22462 22336 22158 22050 21960 21896 21797 21742 21697 21700 21642 21679 21625 21592 21552 21494 21419 21396 21341 21311 21244 21139 21063 21040 21005 20957 20939 20909 20955 20982 20993 21018 20975 20946 20959 20909 20986 21032 21020 21044 21011 21014 20966 20972 20913 20920 20849 20821 20824 20763 20751 20669 20690 20732 20730 20791 20660 20567 20494 20454 20447 20405 20338 20305 20309 20251 20267 20226 20170 20094 20014 19982 19901 19836 19832 19804 19710 19625 19582 19537 19481 19500 19398 19306 19243 19120 19009 18930 18919 18860 18794 18689 18709 18741 18780 18773 18776 18774 18784 18824 18859 18961 18947 18967 18918 18894 18904 18889 18867 18873 18891 18881 18884 18920 18940 18957 18967 18992 19027 19012 18934 18858 18835 18757 18707 18588 18509 18477 18464 18493 18535 18564 18564 18516 18483 18460 18371 18335 18280 18210 18107 18076 17991 17985 17985 17972 17949 17928 17891 17889 17875 17847 17833 17786 17750 17657 17644 17632 17681 17694 17622 17598 17571 17519 17481 17482 17428 17376 17327 17284 17292 17250 17317 17361 17354 17406 17283 17235 17223 17242 17324 17369 17418 17396 17382 17303 17308 17297 17286 17211 17222 17218 17196 17155 17143 17098 17101 17108 17136 17130 17100 17066 17088 17061 17036 16968 16891 16801 16771 16760 16738 16695 16622 16617 16622 16594 16498 16403 16335 16345 16239 16117 16057 16042 15966 15941 15895 15850 15794 15780 15695 15640 15558 15519 15470 15375 15307 15211
17651 17700 17733 17754 17721 17727 17761 17778 17810 17904 17941 17927 17864 17774 17713 17648 17552 17432 17376 17395 17357 17337 17319 17270 17280 17310 17278 17277 17267 17213 17196 17158 17126 17165 17160 17074 17045 17002 16966 16982 16955 16916 16917 16976 17042 17057 17087 17137 17216 17252 17241 17326 17423 17440 17453 17467 17486 17515 17551 17711 17854 17933 18056 18201 18286 18455 18636 18757 18888 19053 19235 19375 19493 19583 19658 19748 19842 19849 19913 20039 20115 20193 20231 20322 20365 20436 20525 20653 20734 20783 20803 20862 20986 21018 21074 21163 21296 21456 21563 21572 21606 21663 21722 21784 21843 21951 22042 22154 22204 22286 22332 22371 22350 22400 22461 22479 22524 22564 22542 22614 22636 22658 22701 22719 22745 22727 22752 22849 22912 23048 23135 23152 23215 23336 23399 23463 23541 23631 23698 23740 23770 23777 23812 23889 23960 23953 23963 23976 24051 24094 24081 24112 24115 24178 24235 24185 24152 24122 24084 24060 24024 24000 24038 23963 23931 23844 23814 23832 23856 23864 23902 24029 24111 24119 24186 24140 24158 24166 24135 24207 24218 24238 24238 24339 24404 24440 24446 24469 24481 24435 24408 24403 24369 24342 24377 24272 24205 24169 24099 24103 24133 24148 24166 24064 24012 23916 23865 23845 23873 23867 23842 23869 23858 23788 23754 23785 23769 23787 23791 23760 23740 23757 23786 23796 23766 23793 23814 23687 23578 23526 23449 23391 23382 23329 23256 23295 23290 23292 23251 23289 23357 23353 23380 23343 23349 23355 23405 23421 23375 23346 23303 23210 23118 23068 23060 22898 22768 22718 22659 22501 22392 22268 22142 22069 21958 21890 21804 21776 21711 21701 21733 21679 21611 21534 21494 21467 21438 21363 21264 21195 21128 21115 21108 21018 20992 20955 20948 20896 20900 20918 20940 20949 20971 20984 20943 20960 20967 20962 21016 20956 20925 20880 20891 20877 20895 20853 20842 20748 20695 20682 20640 20659 20701 20694 20709 20672 20581 20475 20353 20367 20356 20278 20224 20230 20202 20171 20151 20078 20006 19976 19935 19872 19778 19754 19716 19669 19639 19566 19558 19521 19523 19444 19347 19264 19129 19051 18984 18890 18857 18747 18685 18736 18778 18764 18737 18786 18798 18848 18848 18864 18935 18982 18991 18960 18974 18947 18894 18865 18858 18892 18904 18889 18877 18879 18920 18945 18934 18964 18967 18899 18863 18807 18719 18661 18545 18515 18442 18490 18512 18516 18534 18502 18494 18476 18454 18394 18279 18229 18232 18129 18043 17971 17951 17948 17968 17971 17916 17890 17874 17897 17865 17820 17775 17721 17628 17600 17604 17649 17657 17614 17581 17534 17486 17434 17375 17338 17361 17298 17257 17210 17203 17225 17260 17254 17311 17238 17152 17158 17170 17234 17300 17364 17366 17307 17290 17238 17248 17194 17157 17152 17172 17119 17099 17118 17081 17106 17069 17108 17135 17113 17096 17139 17123 17110 17039 16939 16866 16828 16729 16656 16647 16644 16588 16591 16544 16450 16376 16348 16351 16253 16173 16087 16045 16052 16019 15907 15825 15816 15753 15728 15710 15595 15523 15456 15365 15303 15241
17654 17680 17706 17673 17682 17688 17707 17762 17815 17881 17958 17909 17858 17782 17761 17682 17615 17499 17367 17359 17395 17341 17362 17333 17330 17335 17269 17285 17259 17237 17209 17181 17160 17203 17207 17172 17099 17016 16941 16956 16969 16944 16893 16951 17027 17090 17113 17142 17187 17240 17247 17349 17403 17436 17471 17482 17548 17561 17547 17670 17760 17920 18006 18165 18288 18438 18580 18746 18847 19051 19217 19345 19418 19494 19579 19721 19775 19852 19905 19992 20055 20123 20155 20248 20345 20449 20513 20607 20678 20748 20824 20877 20965 21035 21119 21175 21288 21402 21489 21558 21604 21652 21719 21821 21881 22016 22071 22140 22199 22281 22322 22322 22352 22414 22444 22516 22531 22527 22577 22573 22596 22657 22675 22720 22735 22745 22757 22811 22910 23009 23091 23140 23241 23366 23431 23535 23611 23705 23734 23778 23860 23874 23896 23951 23993 24021 23983 24038 24108 24123 24169 24185 24198 24246 24258 24189 24158 24129 24101 24050 23986 23986 24007 23951 23874 23840 23805 23873 23871 23912 23934 24012 24116 24108 24197 24183 24192 24189 24201 24229 24256 24279 24236 24352 24384 24439 24476 24509 24499 24410 24400 24368 24377 24372 24397 24298 24277 24205 24139 24128 24179 24204 24202 24096 24070 23959 23899 23891 23942 23878 23871 23869 23853 23847 23788 23834 23816 23849 23901 23885 23881 23858 23854 23887 23838 23838 23832 23736 23669 23574 23462 23456 23411 23357 23313 23327 23372 23359 23326 23347 23422 23421 23447 23470 23462 23408 23426 23475 23457 23430 23412 23327 23232 23163 23133 23001 22879 22795 22762 22593 22484 22323 22210 22171 22059 22000 21913 21846 21787 21739 21739 21688 21675 21600 21544 21512 21415 21338 21307 21218 21161 21152 21095 21078 21024 20983 20939 20941 20865 20873 20905 20930 20954 20934 20948 20927 20878 20930 20949 20938 20930 20850 20801 20802 20819 20825 20783 20756 20692 20652 20634 20655 20690 20664 20678 20632 20515 20386 20297 20284 20282 20171 20115 20154 20098 20042 20008 19989 19935 19928 19892 19814 19789 19775 19726 19661 19621 19583 19597 19546 19538 19420 19350 19214 19063 19014 18977 18904 18840 18767 18739 18735 18746 18784 18745 18781 18824 18851 18877 18951 18995 19004 19023 18984 18967 18913 18872 18876 18901 18862 18875 18827 18779 18795 18835 18841 18844 18867 18899 18863 18865 18791 18723 18640 18561 18537 18476 18499 18485 18479 18487 18473 18435 18423 18411 18362 18322 18290 18268 18169 18060 17977 17927 17891 17925 17890 17888 17861 17855 17867 17877 17808 17774 17718 17631 17644 17617 17653 17668 17584 17502 17465 17411 17423 17353 17332 17319 17220 17216 17184 17192 17170 17206 17187 17178 17150 17073 17074 17118 17158 17160 17195 17250 17208 17254 17217 17176 17118 17105 17064 17061 17050 17055 17051 17031 17044 17054 17094 17166 17188 17157 17150 17171 17114 17060 16962 16911 16827 16742 16697 16640 16573 16544 16546 16491 16441 16372 16344 16345 16248 16173 16147 16141 16083 16030 15909 15836 15805 15770 15721 15736 15615 15546 15481 15417 15289 15204
17714 17679 17655 17668 17638 17674 17685 17739 17775 17879 17921 17838 17794 17768 17776 17679 17645 17536 17404 17404 17427 17398 17401 17338 17332 17345 17296 17303 17313 17291 17215 17206 17202 17192 17206 17198 17128 17040 16966 16940 16952 16952 16931 17012 17061 17094 17159 17217 17219 17221 17285 17343 17413 17459 17449 17534 17573 17552 17579 17677 17726 17887 18000 18140 18235 18388 18497 18691 18851 18991 19151 19250 19380 19466 19552 19665 19748 19782 19880 19927 19965 20031 20112 20219 20344 20418 20512 20618 20664 20750 20795 20880 20979 21026 21130 21167 21257 21377 21445 21484 21571 21674 21761 21854 21939 22066 22155 22204 22225 22230 22295 22355 22414 22441 22453 22496 22491 22548 22565 22554 22580 22617 22670 22644 22679 22731 22795 22854 22959 23010 23051 23151 23250 23348 23456 23575 23645 23738 23825 23887 23904 23961 23990 24062 24073 24038 24062 24105 24121 24200 24268 24308 24302 24300 24279 24275 24218 24166 24057 24010 23976 23980 23939 23913 23838 23825 23861 23861 23857 23908 23904 24011 24072 24107 24161 24212 24214 24211 24233 24262 24234 24280 24291 24369 24405 24493 24524 24524 24474 24424 24408 24395 24414 24379 24379 24316 24310 24254 24163 24160 24184 24184 24176 24149 24144 24067 23986 23993 23953 23913 23887 23912 23909 23894 23837 23844 23900 23910 23957 23976 23990 23943 23932 23952 23938 23927 23910 23819 23723 23654 23539 23489 23482 23436 23361 23416 23411 23429 23391 23423 23501 23498 23516 23520 23563 23509 23497 23506 23496 23490 23504 23445 23356 23330 23263 23153 23037 22927 22833 22732 22624 22437 22315 22261 22155 22045 21968 21959 21913 21838 21784 21752 21740 21666 21593 21520 21388 21350 21299 21248 21234 21186 21079 21066 21029 21012 20993 20972 20894 20893 20922 20944 20912 20898 20892 20897 20854 20908 20911 20919 20897 20826 20771 20769 20781 20753 20781 20764 20706 20662 20614 20634 20636 20662 20674 20571 20424 20332 20302 20264 20177 20125 20045 20052 20017 19952 19910 19892 19848 19862 19851 19824 19759 19734 19690 19667 19623 19606 19624 19545 19517 19430 19339 19196 19062 18999 18910 18846 18783 18778 18755 18769 18765 18759 18754 18779 18829 18837 18894 18959 19012 19026 19007 18975 18930 18893 18904 18902 18882 18851 18786 18777 18719 18717 18721 18730 18803 18850 18867 18853 18812 18773 18776 18706 18619 18538 18457 18449 18485 18475 18476 18461 18410 18369 18390 18364 18340 18295 18276 18171 18052 17971 17930 17886 17904 17849 17818 17787 17788 17829 17854 17788 17752 17737 17681 17704 17675 17658 17643 17572 17472 17455 17401 17383 17362 17276 17226 17158 17134 17115 17136 17149 17118 17076 17063 17051 16983 17005 17032 17028 17052 17092 17138 17128 17168 17114 17117 17060 17037 16998 16959 16982 17024 17049 17034 17058 17078 17152 17232 17217 17264 17244 17217 17176 17125 17066 16976 16881 16774 16709 16629 16576 16525 16506 16503 16487 16417 16369 16366 16326 16225 16182 16195 16160 16080 15946 15849 15835 15759 15758 15712 15672 15577 15488 15431 15327 15210
17691 17637 17651 17663 17665 17657 17705 17740 17740 17802 17850 17831 17792 17767 17760 17645 17583 17469 17373 17404 17459 17409 17417 17393 17348 17363 17344 17348 17317 17313 17274 17244 17240 17204 17217 17221 17176 17096 17040 17010 16995 17001 17017 17045 17108 17151 17248 17294 17307 17332 17355 17397 17405 17449 17460 17510 17583 17575 17625 17742 17827 17991 18132 18190 18295 18432 18516 18700 18861 19045 19200 19314 19383 19455 19568 19657 19714 19791 19886 19931 19967 20053 20109 20222 20304 20380 20515 20592 20621 20686 20801 20847 20918 21034 21165 21175 21229 21289 21414 21424 21484 21568 21642 21755 21854 21967 22092 22100 22114 22111 22137 22192 22298 22326 22381 22442 22490 22530 22579 22594 22614 22651 22674 22649 22696 22730 22774 22846 22937 22948 23017 23103 23212 23317 23431 23532 23574 23654 23762 23809 23914 23946 23965 24032 24043 24004 24045 24067 24096 24124 24183 24162 24153 24159 24166 24159 24117 24104 24026 23991 23915 23863 23835 23824 23810 23777 23810 23847 23861 23885 23869 23910 23969 24057 24179 24176 24225 24248 24296 24257 24216 24217 24210 24268 24359 24413 24459 24455 24432 24393 24322 24314 24331 24267 24290 24263 24205 24175 24128 24101 24108 24110 24145 24102 24087 24018 23909 23895 23850 23828 23837 23872 23863 23852 23783 23837 23859 23864 23850 23886 23910 23924 23912 23887 23860 23884 23877 23757 23688 23580 23460 23459 23421 23334 23271 23318 23334 23361 23308 23338 23402 23440 23502 23529 23530 23514 23480 23460 23493 23512 23580 23470 23424 23379 23286 23173 23008 22902 22829 22701 22611 22438 22307 22210 22161 22025 21893 21849 21800 21759 21750 21686 21668 21542 21477 21451 21365 21303 21227 21242 21231 21170 21053 21058 21034 20992 20945 20930 20903 20911 20908 20922 20873 20892 20893 20871 20828 20880 20886 20916 20886 20865 20790 20800 20842 20805 20774 20700 20663 20632 20631 20592 20618 20660 20643 20552 20415 20373 20300 20188 20132 20063 19969 19947 19980 19934 19939 19887 19909 19910 19886 19852 19770 19748 19749 19691 19669 19636 19607 19585 19518 19420 19296 19233 19142 19054 18937 18842 18816 18803 18744 18744 18738 18713 18735 18751 18817 18823 18818 18856 18924 18929 18937 18912 18845 18852 18803 18822 18831 18763 18720 18697 18623 18638 18694 18652 18687 18755 18763 18751 18713 18707 18679 18626 18590 18487 18427 18396 18400 18418 18383 18370 18373 18355 18371 18319 18299 18266 18195 18072 18019 17980 17901 17863 17852 17790 17798 17769 17721 17738 17740 17687 17666 17648 17658 17637 17553 17575 17539 17501 17408 17409 17357 17364 17326 17269 17262 17215 17146 17090 17102 17120 17114 17120 17108 17105 17038 17002 17015 17030 17030 17011 17050 17040 17071 17090 17073 17001 17000 16969 16938 16911 16937 16964 16945 16974 17044 17078 17150 17146 17119 17139 17113 17026 16973 16916 16849 16786 16692 16604 16537 16480 16431 16453 16425 16409 16402 16314 16328 16242 16188 16179 16166 16119 16012 15924 15849 15817 15751 15721 15740 15659 15564 15471 15367 15322 15215
17666 17658 17619 17616 17652 17663 17678 17716 17737 17756 17816 17810 17744 17740 17727 17626 17580 17495 17404 17465 17493 17439 17434 17423 17418 17381 17356 17336 17358 17350 17284 17244 17216 17238 17283 17245 17216 17184 17157 17122 17092 17071 17080 17168 17216 17242 17291 17354 17444 17479 17459 17486 17462 17432 17465 17500 17537 17620 17670 17818 17946 18087 18206 18310 18360 18444 18587 18712 18848 19030 19196 19326 19419 19471 19530 19628 19733 19841 19890 19932 19982 20014 20077 20173 20314 20406 20471 20534 20581 20643 20750 20853 20907 21038 21146 21177 21198 21249 21327 21410 21439 21506 21562 21711 21814 21904 22005 22039 22041 22017 22026 22105 22203 22262 22329 22366 22436 22509 22547 22604 22676 22673 22676 22707 22739 22800 22806 22867 22876 22924 23030 23113 23189 23306 23393 23464 23531 23625 23725 23804 23863 23893 23939 23949 24003 24007 24014 24044 24086 24068 24070 24048 24044 24089 24073 24046 23990 23998 24013 23940 23831 23823 23794 23801 23796 23793 23796 23812 23864 23807 23786 23861 23931 24067 24144 24194 24208 24238 24303 24282 24254 24199 24182 24223 24272 24362 24404 24393 24359 24314 24284 24265 24214 24190 24185 24168 24160 24163 24128 24100 24040 24093 24088 24049 24029 23952 23850 23831 23795 23840 23827 23835 23864 23774 23739 23781 23768 23771 23774 23818 23806 23854 23854 23813 23823 23817 23819 23775 23674 23588 23446 23426 23385 23309 23236 23263 23277 23271 23246 23285 23334 23415 23482 23514 23540 23504 23411 23427 23499 23554 23628 23520 23475 23399 23299 23129 22968 22906 22793 22658 22561 22398 22265 22193 22120 22015 21850 21771 21745 21711 21722 21668 21609 21485 21421 21335 21295 21261 21201 21199 21189 21149 21085 21090 21056 20971 20933 20908 20884 20877 20861 20867 20852 20903 20900 20891 20858 20855 20868 20917 20905 20858 20825 20860 20855 20801 20792 20701 20650 20665 20619 20612 20604 20642 20671 20558 20404 20383 20303 20176 20098 20020 19889 19908 19976 19966 19923 19897 19917 19922 19865 19811 19744 19798 19792 19763 19725 19639 19602 19547 19524 19430 19288 19245 19163 19023 18911 18880 18791 18764 18716 18701 18689 18698 18672 18720 18752 18806 18802 18814 18890 18895 18922 18825 18774 18762 18746 18735 18720 18706 18639 18583 18579 18581 18639 18597 18610 18682 18698 18676 18673 18671 18646 18598 18504 18456 18359 18343 18332 18296 18288 18331 18317 18337 18380 18324 18252 18161 18061 17968 17937 17930 17880 17835 17827 17790 17748 17752 17703 17668 17683 17657 17613 17622 17612 17557 17477 17478 17453 17373 17329 17329 17328 17283 17237 17253 17241 17183 17115 17127 17111 17141 17114 17143 17187 17148 17086 17005 16979 16979 16996 16989 16991 16973 16999 16984 17029 16955 16915 16879 16880 16848 16873 16882 16857 16886 16972 16987 17029 17035 17020 16994 16979 16940 16881 16797 16739 16619 16560 16489 16444 16405 16378 16377 16317 16309 16332 16263 16241 16193 16155 16114 16105 16052 15989 15893 15859 15774 15738 15743 15784 15638 15536 15422 15340 15287 15193
17661 17637 17568 17617 17632 17635 17640 17675 17707 17728 17801 17801 17738 17709 17709 17665 17610 17571 17467 17480 17542 17505 17471 17437 17450 17461 17424 17432 17389 17360 17323 17257 17248 17278 17274 17272 17234 17248 17235 17235 17225 17169 17168 17263 17325 17365 17405 17491 17560 17571 17608 17551 17547 17512 17515 17525 17571 17651 17682 17814 18015 18130 18250 18368 18479 18562 18671 18769 18923 19080 19210 19358 19443 19478 19507 19582 19698 19776 19853 19882 19955 19992 20052 20176 20264 20405 20474 20534 20523 20592 20670 20767 20833 20938 21073 21108 21167 21220 21214 21335 21420 21494 21540 21644 21763 21830 21935 21909 21893 21894 21936 22001 22114 22142 22245 22313 22434 22473 22550 22632 22677 22698 22717 22718 22744 22780 22847 22874 22862 22928 23034 23097 23215 23336 23417 23442 23540 23585 23658 23749 23767 23802 23890 23874 23917 23966 23973 24013 24023 23986 23985 23961 23962 24000 23977 23922 23927 23907 23956 23872 23794 23796 23752 23760 23755 23778 23814 23827 23845 23787 23747 23791 23909 24042 24130 24169 24163 24203 24290 24281 24298 24218 24200 24221 24309 24315 24351 24293 24235 24200 24195 24146 24136 24091 24059 24081 24090 24095 24068 24039 23994 23977 23992 23945 23942 23845 23820 23802 23774 23824 23808 23856 23858 23812 23760 23765 23743 23732 23716 23734 23757 23792 23813 23762 23747 23757 23772 23727 23641 23537 23437 23398 23363 23292 23205 23203 23212 23215 23205 23239 23299 23347 23423 23490 23512 23473 23388 23418 23459 23537 23618 23536 23441 23373 23313 23124 22955 22881 22740 22673 22530 22397 22265 22147 22042 21945 21771 21717 21707 21729 21738 21636 21536 21488 21399 21336 21303 21243 21182 21150 21166 21102 21076 21032 20971 20908 20907 20916 20929 20896 20839 20861 20886 20855 20836 20846 20812 20873 20875 20882 20901 20833 20826 20849 20856 20757 20735 20699 20635 20646 20645 20649 20644 20648 20673 20568 20405 20342 20284 20178 20045 19931 19842 19862 19937 19967 19916 19927 19922 19857 19832 19778 19757 19802 19810 19748 19730 19676 19616 19589 19518 19409 19290 19267 19178 19046 18900 18909 18816 18780 18703 18683 18681 18637 18655 18667 18672 18712 18755 18816 18837 18843 18840 18798 18782 18722 18705 18692 18706 18641 18578 18529 18544 18504 18529 18580 18556 18607 18615 18630 18608 18619 18570 18469 18380 18363 18275 18250 18247 18203 18216 18266 18264 18285 18322 18242 18179 18100 18019 17934 17890 17857 17860 17792 17776 17759 17736 17654 17617 17635 17608 17584 17555 17545 17520 17470 17441 17435 17361 17291 17280 17295 17265 17216 17240 17243 17256 17174 17129 17125 17144 17200 17221 17204 17214 17153 17083 17075 17021 16981 16991 16946 16951 16952 16977 17009 16989 16933 16901 16887 16852 16818 16849 16793 16756 16813 16822 16866 16916 16887 16846 16871 16846 16762 16684 16658 16623 16521 16455 16397 16333 16331 16289 16258 16221 16227 16200 16220 16215 16124 16104 16098 16018 15986 15941 15889 15807 15791 15744 15749 15750 15623 15478 15380 15280 15204 15121
17688 17584 17544 17534 17558 17558 17578 17673 17713 17729 17777 17737 17750 17767 17746 17730 17656 17592 17512 17544 17532 17537 17565 17498 17463 17471 17447 17474 17460 17433 17386 17319 17317 17294 17304 17325 17308 17303 17283 17279 17296 17276 17226 17342 17414 17458 17481 17547 17650 17663 17707 17638 17605 17559 17553 17610 17635 17611 17649 17851 18036 18206 18327 18461 18576 18671 18707 18888 19016 19170 19263 19347 19424 19494 19514 19558 19644 19739 19790 19829 19886 19973 20068 20148 20234 20358 20425 20493 20507 20597 20643 20750 20806 20929 21052 21056 21089 21142 21135 21249 21342 21424 21467 21600 21681 21775 21807 21814 21787 21820 21879 21947 22039 22050 22117 22225 22372 22435 22512 22616 22667 22724 22742 22765 22794 22830 22901 22935 22910 22947 23038 23144 23192 23313 23389 23440 23487 23541 23631 23679 23693 23730 23787 23819 23864 23904 23960 23915 23917 23948 23940 23917 23924 23853 23837 23857 23850 23852 23893 23867 23797 23712 23688 23735 23730 23747 23816 23829 23814 23774 23690 23765 23845 23956 24058 24106 24173 24231 24312 24320 24282 24237 24194 24264 24336 24354 24357 24280 24154 24082 24047 24045 23999 23968 23930 23960 24022 24039 23999 23944 23914 23896 23937 23848 23813 23794 23770 23786 23748 23816 23824 23805 23834 23801 23724 23677 23656 23704 23694 23688 23735 23716 23761 23739 23728 23720 23758 23657 23608 23475 23387 23359 23356 23285 23202 23151 23165 23186 23158 23223 23307 23368 23422 23419 23480 23440 23430 23446 23476 23550 23626 23489 23383 23344 23268 23142 22954 22870 22744 22666 22538 22385 22230 22093 21981 21859 21734 21729 21713 21742 21716 21616 21481 21408 21333 21283 21265 21187 21114 21128 21108 21052 21014 20985 20936 20907 20885 20885 20930 20882 20880 20910 20889 20862 20806 20832 20814 20860 20865 20822 20840 20878 20879 20877 20820 20732 20683 20656 20663 20621 20629 20639 20680 20672 20654 20553 20440 20355 20328 20206 20048 19932 19853 19885 19944 19975 19952 19919 19875 19825 19777 19748 19764 19752 19803 19771 19752 19743 19693 19627 19533 19410 19346 19238 19187 19056 18950 18926 18860 18772 18652 18659 18682 18609 18587 18599 18655 18702 18765 18769 18777 18809 18808 18800 18735 18729 18701 18668 18659 18605 18555 18538 18489 18464 18484 18514 18559 18553 18571 18568 18557 18523 18534 18397 18315 18227 18200 18135 18132 18158 18167 18204 18225 18222 18260 18197 18098 18011 17960 17911 17904 17878 17804 17746 17720 17708 17681 17607 17569 17532 17504 17532 17531 17490 17436 17460 17425 17350 17319 17259 17253 17228 17235 17205 17232 17260 17293 17233 17187 17195 17202 17222 17276 17279 17274 17181 17145 17114 17028 16978 16989 16926 16910 16964 16988 16966 16975 16983 16932 16886 16854 16832 16778 16767 16698 16722 16727 16793 16809 16788 16717 16732 16738 16642 16543 16492 16469 16450 16369 16310 16223 16216 16221 16193 16123 16105 16104 16148 16143 16095 16085 16032 15972 15914 15846 15855 15809 15776 15713 15708 15742 15587 15438 15331 15222 15128 15027
17666 17610 17584 17581 17627 17607 17599 17635 17670 17724 17752 17746 17784 17797 17793 17765 17719 17606 17522 17568 17544 17511 17488 17464 17464 17495 17470 17431 17429 17413 17350 17319 17341 17333 17331 17332 17302 17326 17299 17269 17267 17257 17279 17362 17407 17455 17516 17569 17661 17685 17756 17717 17660 17633 17666 17656 17678 17698 17733 17905 18118 18261 18373 18483 18553 18675 18741 18902 19012 19114 19241 19301 19382 19470 19497 19540 19654 19669 19731 19795 19896 19980 20050 20174 20235 20310 20353 20398 20438 20579 20664 20747 20815 20886 20966 20989 21049 21065 21112 21219 21275 21316 21364 21435 21563 21641 21665 21747 21777 21764 21833 21890 22001 21969 22028 22144 22307 22365 22425 22468 22569 22592 22667 22707 22734 22821 22871 22889 22947 22996 23019 23104 23148 23252 23292 23368 23375 23419 23544 23610 23613 23683 23734 23748 23838 23876 23891 23845 23864 23854 23828 23833 23775 23769 23722 23746 23756 23764 23829 23822 23790 23724 23704 23748 23725 23723 23785 23765 23792 23726 23649 23755 23826 23951 24036 24100 24117 24213 24306 24269 24299 24239 24176 24278 24327 24346 24382 24293 24169 24049 24004 24014 23973 23915 23881 23907 23898 23895 23887 23865 23858 23849 23800 23786 23784 23722 23727 23761 23784 23774 23799 23806 23775 23777 23715 23660 23595 23665 23682 23660 23671 23675 23691 23690 23656 23686 23690 23613 23595 23484 23375 23315 23273 23219 23126 23094 23096 23088 23090 23197 23252 23284 23319 23366 23445 23444 23425 23447 23543 23609 23646 23498 23337 23268 23145 23038 22871 22751 22672 22590 22490 22307 22150 22035 21927 21797 21682 21729 21688 21725 21678 21584 21466 21379 21299 21240 21209 21111 21044 21040 21024 20962 20957 20886 20871 20841 20830 20868 20863 20806 20835 20801 20801 20804 20789 20758 20759 20805 20824 20809 20825 20841 20872 20872 20804 20711 20649 20635 20643 20634 20621 20634 20653 20637 20645 20550 20432 20347 20277 20163 20068 19938 19799 19860 19920 19920 19939 19930 19922 19829 19818 19758 19766 19729 19764 19730 19726 19721 19684 19594 19510 19398 19326 19251 19180 19045 18946 18940 18884 18776 18646 18670 18638 18618 18549 18563 18648 18648 18691 18688 18693 18742 18756 18735 18664 18663 18642 18630 18613 18582 18552 18473 18433 18437 18482 18486 18530 18496 18471 18499 18511 18470 18514 18399 18302 18243 18176 18136 18121 18152 18142 18133 18120 18122 18184 18135 18111 18014 17921 17912 17827 17798 17784 17733 17692 17615 17597 17535 17481 17448 17429 17392 17428 17349 17322 17305 17316 17287 17282 17206 17204 17235 17251 17276 17268 17293 17316 17278 17212 17196 17241 17224 17254 17283 17261 17214 17186 17084 17053 17044 17020 16917 16854 16863 16899 16904 16939 16920 16865 16817 16748 16719 16714 16688 16644 16666 16671 16698 16711 16658 16628 16605 16598 16477 16440 16395 16381 16322 16304 16252 16146 16154 16171 16096 16069 16055 16048 16033 16033 16016 15991 15934 15921 15861 15831 15823 15785 15732 15683 15669 15718 15607 15477 15335 15197 15107 15058
17704 17698 17635 17662 17665 17647 17629 17683 17676 17707 17677 17709 17785 17812 17785 17761 17744 17694 17596 17588 17600 17548 17474 17463 17500 17513 17472 17460 17458 17436 17358 17331 17359 17316 17297 17284 17332 17298 17316 17316 17267 17320 17360 17362 17418 17462 17556 17663 17735 17773 17811 17722 17686 17691 17723 17713 17763 17776 17766 17966 18146 18250 18384 18463 18584 18707 18783 18882 18996 19091 19242 19284 19360 19421 19539 19573 19614 19648 19697 19749 19844 19945 20083 20169 20197 20236 20317 20372 20431 20524 20634 20709 20819 20867 20890 20966 20981 21038 21055 21120 21199 21213 21230 21338 21425 21528 21587 21624 21705 21746 21833 21888 21923 21908 21929 22064 22183 22239 22298 22381 22435 22535 22619 22661 22686 22799 22864 22890 22957 22967 22954 23007 23113 23176 23191 23250 23315 23343 23422 23504 23579 23617 23667 23708 23778 23819 23855 23811 23779 23743 23759 23689 23653 23626 23633 23654 23707 23741 23727 23749 23754 23715 23720 23744 23712 23742 23755 23731 23735 23654 23626 23677 23767 23864 23955 24038 24064 24144 24273 24274 24275 24219 24164 24281 24336 24355 24345 24262 24164 24042 23977 23932 23934 23878 23850 23836 23792 23764 23800 23812 23821 23741 23703 23701 23706 23681 23658 23727 23762 23767 23768 23767 23763 23718 23647 23624 23581 23614 23677 23635 23587 23570 23569 23569 23551 23597 23648 23562 23534 23417 23331 23243 23149 23096 23050 23082 23054 23054 23077 23117 23189 23200 23202 23263 23375 23377 23398 23502 23551 23579 23621 23453 23277 23173 23086 22977 22827 22687 22601 22531 22430 22292 22123 21984 21846 21752 21676 21697 21705 21691 21645 21527 21419 21352 21317 21255 21201 21129 21009 20961 20964 20910 20867 20829 20806 20802 20788 20822 20814 20765 20730 20762 20743 20779 20768 20750 20692 20744 20788 20815 20802 20810 20879 20838 20787 20697 20659 20636 20629 20595 20566 20592 20597 20641 20631 20492 20406 20326 20275 20125 20026 19937 19803 19842 19946 19902 19882 19879 19927 19869 19841 19808 19773 19757 19718 19698 19675 19646 19621 19519 19467 19358 19247 19190 19127 19075 18967 18912 18847 18768 18704 18681 18626 18592 18563 18555 18591 18577 18611 18630 18658 18676 18735 18690 18655 18653 18608 18575 18598 18525 18510 18443 18440 18460 18454 18455 18514 18461 18405 18376 18411 18403 18456 18396 18353 18254 18158 18156 18100 18118 18077 18055 18040 18052 18107 18083 18069 18025 17921 17880 17797 17762 17736 17692 17648 17568 17533 17505 17432 17374 17335 17272 17270 17236 17214 17209 17188 17186 17199 17192 17178 17250 17260 17262 17268 17293 17313 17294 17248 17267 17245 17283 17273 17316 17310 17242 17165 17103 17077 17069 17011 16926 16838 16861 16836 16851 16889 16830 16772 16696 16683 16632 16599 16600 16597 16648 16665 16616 16598 16598 16555 16472 16398 16357 16298 16277 16264 16256 16220 16133 16031 16035 16063 15992 15973 16033 16035 16007 15947 15900 15902 15841 15827 15853 15832 15839 15793 15722 15681 15637 15651 15573 15482 15350 15171 15145 15120
17678 17634 17639 17627 17634 17659 17702 17672 17681 17682 17647 17712 17742 17790 17793 17787 17758 17721 17656 17598 17581 17531 17439 17453 17438 17477 17457 17420 17412 17402 17381 17333 17332 17335 17310 17318 17341 17369 17379 17332 17326 17357 17390 17424 17483 17521 17596 17683 17729 17789 17825 17765 17734 17716 17737 17789 17811 17793 17798 17973 18165 18294 18436 18488 18584 18708 18800 18922 18977 19120 19247 19288 19326 19408 19537 19584 19627 19653 19704 19789 19857 19963 20047 20057 20086 20144 20247 20323 20390 20466 20579 20657 20763 20823 20854 20921 20922 20972 20941 20983 21047 21094 21130 21247 21293 21358 21417 21481 21563 21666 21771 21802 21818 21861 21905 22013 22090 22193 22249 22340 22415 22525 22643 22643 22683 22751 22799 22882 22935 22949 22981 23027 23096 23133 23090 23125 23204 23284 23342 23433 23528 23526 23576 23605 23662 23713 23750 23732 23669 23634 23597 23536 23561 23568 23569 23548 23551 23634 23637 23661 23719 23722 23680 23722 23708 23738 23788 23739 23726 23677 23637 23696 23759 23898 23971 24051 24074 24118 24208 24219 24184 24177 24147 24240 24288 24370 24376 24227 24131 24035 23947 23886 23873 23809 23769 23727 23732 23742 23736 23745 23754 23683 23627 23641 23648 23639 23671 23661 23727 23708 23710 23655 23641 23653 23615 23569 23587 23592 23647 23594 23583 23527 23521 23507 23497 23494 23538 23468 23443 23343 23246 23158 23091 23000 22916 22934 22962 22970 22980 23048 23044 23106 23125 23196 23298 23331 23362 23451 23495 23511 23547 23378 23238 23157 23034 22941 22815 22685 22554 22501 22358 22260 22065 21941 21826 21745 21676 21629 21636 21603 21573 21521 21451 21342 21275 21210 21143 21055 20956 20941 20865 20851 20799 20838 20835 20760 20763 20775 20821 20786 20721 20693 20730 20694 20680 20673 20655 20653 20699 20735 20742 20784 20822 20797 20792 20744 20698 20672 20637 20621 20566 20537 20548 20580 20566 20481 20341 20255 20212 20096 19962 19936 19808 19876 19922 19920 19917 19905 19905 19910 19851 19835 19836 19769 19739 19731 19689 19619 19622 19499 19448 19302 19198 19177 19089 19019 18970 18943 18877 18775 18758 18683 18621 18543 18531 18509 18536 18492 18523 18567 18581 18595 18653 18681 18643 18631 18580 18567 18579 18517 18503 18495 18464 18438 18449 18441 18463 18417 18362 18353 18326 18335 18362 18312 18277 18204 18107 18093 18113 18088 18041 17996 18025 17994 18018 18016 17973 17956 17903 17859 17773 17684 17654 17623 17559 17459 17398 17359 17351 17312 17312 17270 17201 17170 17183 17181 17135 17119 17112 17151 17194 17271 17278 17316 17323 17293 17332 17338 17281 17271 17242 17260 17290 17327 17288 17268 17215 17180 17106 17078 17022 16921 16877 16869 16819 16818 16833 16827 16750 16663 16619 16623 16618 16559 16564 16605 16607 16539 16476 16483 16448 16325 16276 16277 16222 16222 16172 16162 16151 16076 15959 15957 15973 15920 15905 15985 15992 15936 15893 15824 15777 15740 15695 15742 15723 15745 15757 15666 15632 15642 15594 15530 15437 15321 15232 15170 15099
17675 17626 17634 17649 17668 17701 17739 17697 17698 17692 17625 17648 17715 17769 17798 17815 17831 17759 17751 17628 17552 17498 17458 17415 17406 17395 17415 17384 17380 17399 17393 17389 17362 17335 17354 17395 17402 17383 17390 17352 17354 17372 17444 17518 17578 17649 17663 17705 17752 17854 17896 17882 17844 17778 17775 17773 17800 17863 17887 18071 18201 18353 18472 18510 18606 18730 18859 18907 18989 19112 19237 19289 19337 19433 19543 19556 19593 19635 19673 19789 19884 19940 19985 20004 20024 20072 20184 20261 20393 20431 20532 20641 20735 20796 20835 20871 20864 20896 20885 20905 20958 20978 21014 21114 21202 21228 21299 21390 21450 21586 21661 21709 21706 21766 21861 21959 22025 22101 22178 22248 22377 22484 22623 22674 22706 22762 22758 22839 22909 22921 22986 23000 23068 23066 23034 23051 23100 23161 23242 23349 23433 23489 23515 23508 23538 23585 23678 23593 23555 23523 23472 23415 23409 23468 23471 23461 23451 23532 23557 23628 23674 23699 23672 23662 23660 23704 23765 23723 23704 23670 23622 23717 23777 23879 23967 24008 24036 24059 24141 24156 24143 24133 24167 24250 24288 24338 24368 24227 24148 24032 23975 23871 23769 23725 23671 23702 23690 23637 23647 23625 23649 23590 23573 23541 23552 23578 23635 23614 23655 23656 23604 23583 23551 23557 23546 23576 23568 23598 23648 23600 23545 23496 23466 23442 23447 23417 23429 23382 23307 23244 23199 23120 23015 22885 22803 22846 22853 22899 22940 22966 22961 23011 23103 23177 23247 23297 23343 23389 23479 23475 23496 23365 23196 23135 23012 22883 22776 22677 22529 22442 22334 22214 22044 21948 21797 21703 21623 21603 21536 21502 21509 21464 21437 21351 21282 21190 21143 21070 20962 20911 20801 20771 20763 20813 20814 20768 20768 20771 20791 20718 20703 20671 20702 20623 20608 20644 20649 20611 20614 20622 20679 20731 20760 20745 20749 20709 20691 20672 20666 20620 20596 20546 20525 20503 20502 20403 20308 20232 20153 20026 19962 19917 19814 19852 19914 19898 19891 19901 19948 19923 19925 19899 19846 19801 19717 19737 19701 19648 19593 19467 19398 19266 19189 19139 19088 18995 18953 18922 18860 18812 18828 18713 18585 18496 18468 18460 18501 18445 18439 18455 18474 18567 18616 18636 18611 18584 18595 18572 18533 18523 18509 18547 18530 18507 18484 18464 18444 18345 18309 18247 18247 18259 18301 18284 18247 18181 18106 18093 18107 18094 18019 17990 18002 17994 17980 17910 17899 17839 17830 17832 17772 17671 17595 17484 17422 17377 17315 17259 17214 17195 17233 17183 17189 17141 17111 17090 17097 17090 17085 17135 17218 17279 17293 17344 17362 17335 17339 17337 17278 17297 17286 17279 17307 17332 17307 17296 17257 17247 17190 17115 17063 16964 16854 16845 16795 16829 16814 16786 16707 16658 16594 16570 16592 16519 16492 16506 16489 16438 16401 16315 16290 16195 16150 16167 16125 16112 16037 16010 16022 16013 15948 15921 15900 15904 15889 15891 15945 15903 15877 15797 15712 15678 15614 15654 15660 15668 15682 15643 15602 15612 15564 15480 15423 15330 15232 15142 15057
17645 17618 17578 17611 17681 17681 17724 17727 17685 17696 17600 17653 17748 17746 17788 17756 17777 17784 17764 17680 17574 17559 17496 17452 17453 17440 17491 17492 17466 17456 17464 17414 17403 17427 17435 17447 17456 17431 17430 17459 17434 17424 17443 17526 17584 17687 17733 17772 17779 17861 17958 17951 17896 17869 17853 17864 17864 17902 17967 18100 18263 18369 18490 18615 18671 18784 18903 18932 19012 19153 19268 19341 19384 19463 19587 19637 19630 19673 19701 19812 19909 19941 19980 19997 20007 20062 20208 20244 20369 20426 20543 20579 20639 20678 20740 20740 20747 20786 20811 20892 20940 20933 20977 21007 21061 21120 21171 21261 21407 21510 21649 21703 21722 21785 21851 21958 22003 22057 22124 22250 22379 22488 22558 22627 22665 22714 22748 22770 22839 22928 22995 22989 23048 23062 23026 23034 23078 23165 23204 23286 23350 23368 23420 23473 23539 23553 23626 23560 23538 23495 23499 23463 23400 23420 23404 23440 23427 23467 23523 23582 23581 23623 23658 23612 23600 23614 23676 23629 23644 23637 23603 23671 23763 23876 23939 23973 23985 24033 24098 24141 24110 24110 24139 24190 24189 24220 24251 24163 24011 23902 23817 23782 23676 23588 23555 23590 23630 23625 23626 23596 23634 23607 23533 23548 23521 23579 23576 23533 23545 23536 23574 23520 23479 23540 23553 23528 23549 23595 23635 23549 23490 23422 23372 23420 23395 23368 23370 23343 23288 23216 23122 23048 22951 22831 22749 22825 22887 22918 22917 23000 23025 23040 23136 23178 23187 23247 23298 23389 23427 23384 23416 23236 23077 23007 22897 22809 22671 22579 22478 22333 22209 22149 22062 21955 21791 21735 21661 21592 21551 21539 21492 21427 21361 21246 21210 21133 21101 21032 20973 20907 20847 20800 20720 20748 20730 20710 20710 20749 20743 20739 20722 20738 20731 20741 20718 20702 20683 20638 20628 20639 20718 20715 20682 20701 20731 20692 20690 20649 20615 20612 20602 20582 20541 20443 20408 20337 20231 20198 20125 20016 19944 19865 19831 19829 19876 19878 19887 19868 19911 19872 19890 19828 19821 19747 19685 19641 19625 19626 19570 19444 19400 19251 19171 19136 19066 19021 18934 18882 18880 18802 18788 18676 18617 18567 18505 18464 18421 18370 18349 18377 18408 18431 18503 18461 18455 18451 18451 18431 18372 18365 18376 18371 18373 18359 18339 18341 18311 18234 18208 18156 18135 18172 18177 18145 18096 18053 18031 17999 18002 18006 17937 17940 17916 17922 17907 17861 17820 17785 17784 17708 17631 17545 17512 17430 17302 17285 17255 17174 17174 17138 17116 17063 17065 17028 17000 17023 16988 17036 17047 17105 17181 17170 17209 17278 17314 17328 17345 17326 17312 17276 17236 17270 17324 17298 17335 17276 17251 17162 17121 17110 17054 16951 16867 16883 16888 16871 16878 16833 16795 16669 16619 16581 16623 16552 16465 16436 16453 16392 16361 16321 16239 16127 16105 16118 16108 16013 15952 15977 15980 15949 15905 15862 15840 15867 15843 15825 15887 15851 15825 15752 15681 15617 15567 15605 15676 15634 15657 15589 15572 15540 15533 15483 15397 15329 15197 15154 15052
17603 17568 17577 17622 17634 17709 17748 17721 17706 17694 17632 17698 17758 17746 17774 17740 17732 17748 17779 17687 17643 17588 17592 17555 17545 17507 17517 17530 17558 17578 17589 17505 17485 17506 17515 17485 17510 17480 17506 17520 17500 17431 17395 17455 17557 17666 17815 17855 17861 17915 18009 17981 17927 17980 17972 17962 17917 17970 18032 18132 18297 18454 18570 18674 18773 18838 18945 18961 18999 19154 19262 19381 19467 19570 19651 19683 19691 19735 19786 19845 19943 19968 19959 19959 19973 20076 20180 20212 20307 20438 20525 20582 20581 20642 20663 20664 20683 20705 20720 20821 20879 20891 20925 20958 20984 21031 21058 21182 21358 21467 21602 21666 21735 21823 21851 21907 21965 22042 22100 22247 22353 22451 22534 22584 22628 22671 22679 22733 22812 22894 22945 22963 23004 23063 23078 23107 23098 23109 23130 23191 23285 23325 23359 23402 23508 23530 23562 23563 23510 23466 23476 23430 23446 23399 23393 23361 23359 23445 23502 23493 23495 23569 23609 23593 23551 23546 23582 23560 23586 23575 23621 23645 23733 23806 23866 23913 23948 24042 24074 24106 24099 24077 24119 24075 24084 24132 24163 24048 23881 23794 23720 23659 23577 23509 23481 23531 23582 23585 23609 23615 23575 23579 23553 23556 23515 23541 23559 23518 23462 23473 23526 23494 23446 23469 23528 23535 23554 23600 23588 23517 23485 23386 23338 23371 23395 23348 23328 23258 23229 23146 23110 23031 22937 22822 22758 22805 22882 22878 22889 22979 23055 23084 23129 23154 23157 23247 23307 23344 23359 23332 23327 23141 23015 22948 22847 22685 22571 22480 22424 22261 22149 22060 22024 21915 21783 21685 21639 21615 21548 21541 21493 21409 21323 21185 21105 21060 21021 21002 20932 20876 20851 20798 20709 20715 20675 20679 20657 20731 20757 20771 20775 20743 20757 20787 20771 20738 20747 20745 20698 20707 20743 20671 20660 20668 20693 20641 20646 20647 20597 20568 20557 20549 20514 20442 20318 20245 20210 20147 20118 20043 19914 19837 19817 19815 19831 19862 19918 19852 19845 19822 19852 19777 19739 19704 19691 19638 19546 19546 19524 19415 19352 19251 19112 19052 19036 18965 18912 18894 18889 18801 18767 18667 18630 18531 18482 18423 18398 18389 18324 18341 18357 18368 18390 18336 18321 18281 18302 18263 18263 18266 18293 18276 18281 18273 18224 18200 18171 18104 18080 17998 17968 18005 18019 18020 18002 17966 17937 17932 17894 17871 17859 17873 17879 17843 17801 17791 17743 17700 17678 17612 17553 17471 17370 17312 17212 17188 17154 17117 17088 17074 17046 16994 16960 16968 16926 16956 16943 17000 17031 17051 17082 17102 17172 17174 17204 17228 17310 17293 17299 17261 17197 17267 17291 17307 17318 17258 17218 17151 17074 17068 17008 16951 16885 16928 16922 16919 16934 16856 16837 16726 16676 16640 16634 16570 16476 16424 16394 16312 16283 16276 16207 16100 16047 16033 16045 15982 15928 15929 15973 15910 15911 15868 15833 15821 15824 15796 15785 15732 15723 15670 15651 15611 15581 15594 15632 15621 15574 15502 15480 15457 15467 15398 15384 15300 15184 15158 15089
17562 17521 17554 17602 17618 17695 17759 17719 17695 17689 17692 17737 17760 17749 17787 17728 17741 17783 17778 17714 17725 17681 17650 17619 17627 17625 17637 17604 17589 17576 17618 17571 17519 17532 17548 17540 17557 17498 17505 17507 17493 17456 17396 17484 17593 17702 17829 17882 17923 18025 18075 18049 18042 18005 18017 17977 18007 18041 18082 18210 18294 18441 18576 18682 18734 18833 18921 18965 19004 19129 19213 19342 19488 19648 19726 19786 19797 19818 19893 19943 19978 19957 19979 19995 19964 20027 20114 20236 20298 20371 20458 20505 20464 20494 20584 20625 20625 20678 20684 20770 20781 20839 20896 20909 20946 21004 20998 21125 21273 21418 21509 21575 21678 21723 21815 21875 21909 21992 22079 22173 22249 22333 22454 22488 22551 22562 22627 22686 22766 22860 22909 22949 22948 23014 23011 22999 23002 23002 23004 23059 23162 23237 23299 23394 23444 23484 23532 23492 23447 23444 23425 23383 23399 23355 23339 23316 23304 23391 23470 23448 23444 23499 23548 23558 23561 23514 23540 23542 23581 23557 23593 23616 23676 23720 23749 23835 23867 23919 23996 24007 24049 24050 24102 24021 24004 24021 24030 23899 23804 23727 23644 23584 23529 23457 23434 23498 23527 23563 23557 23598 23562 23551 23513 23552 23518 23523 23479 23481 23429 23439 23424 23462 23436 23477 23487 23461 23499 23502 23538 23468 23477 23358 23316 23313 23283 23299 23271 23158 23128 23058 23054 22953 22867 22767 22715 22805 22865 22859 22865 22953 23015 23117 23177 23197 23151 23186 23227 23238 23226 23270 23267 23074 22913 22879 22775 22635 22478 22403 22363 22193 22108 22056 21974 21878 21769 21685 21581 21547 21527 21476 21477 21321 21248 21177 21069 21082 21020 20972 20962 20862 20821 20722 20630 20667 20641 20629 20630 20704 20726 20777 20745 20739 20726 20793 20769 20790 20778 20718 20698 20724 20715 20679 20660 20614 20626 20606 20580 20615 20586 20498 20473 20488 20458 20366 20300 20210 20158 20142 20073 19984 19851 19832 19753 19777 19812 19812 19867 19840 19806 19828 19796 19757 19763 19761 19719 19650 19542 19497 19496 19388 19347 19217 19108 19092 19040 18984 18970 18946 18914 18849 18805 18716 18645 18580 18471 18416 18353 18335 18304 18275 18272 18271 18282 18266 18230 18214 18196 18214 18174 18199 18220 18178 18132 18130 18080 18078 18051 18002 17929 17881 17848 17848 17898 17849 17840 17853 17793 17818 17796 17772 17805 17775 17796 17743 17692 17641 17591 17569 17560 17499 17448 17391 17297 17204 17139 17094 17074 17067 17016 16968 16897 16853 16870 16853 16858 16891 16890 16935 16966 16972 16993 17014 17091 17129 17144 17170 17256 17214 17218 17184 17185 17212 17257 17259 17325 17216 17175 17078 17053 17010 17022 17011 16957 16949 16931 16955 16904 16909 16845 16789 16699 16668 16633 16554 16529 16470 16430 16325 16249 16223 16183 16096 16036 16035 16018 15935 15889 15901 15898 15859 15902 15884 15824 15807 15787 15737 15741 15693 15624 15617 15620 15640 15581 15556 15593 15560 15579 15546 15484 15469 15476 15399 15402 15300 15232 15173 15107
17505 17490 17469 17546 17619 17677 17737 17690 17699 17698 17749 17756 17758 17736 17763 17762 17783 17797 17798 17777 17818 17768 17773 17719 17730 17748 17723 17704 17640 17627 17674 17635 17588 17572 17601 17636 17633 17575 17548 17510 17512 17515 17462 17546 17625 17766 17869 17900 17992 18065 18168 18115 18117 18111 18057 18052 18111 18123 18110 18258 18352 18477 18577 18657 18756 18807 18921 18944 19021 19117 19217 19414 19557 19687 19775 19862 19929 19941 19964 19954 19984 19982 19992 19983 19988 20022 20105 20212 20319 20355 20441 20433 20403 20416 20493 20549 20618 20634 20643 20713 20736 20815 20922 20934 20906 20933 20939 21075 21238 21313 21436 21513 21644 21683 21747 21828 21897 21983 22027 22108 22210 22297 22422 22443 22432 22484 22560 22682 22746 22798 22819 22885 22955 22970 23000 22950 22931 22895 22913 22981 23097 23194 23262 23319 23363 23398 23460 23464 23429 23429 23408 23364 23330 23291 23259 23289 23278 23315 23395 23388 23411 23453 23527 23558 23570 23529 23519 23518 23540 23529 23579 23608 23587 23651 23675 23712 23774 23858 23896 23970 24002 24040 24066 24030 23963 23962 23954 23840 23738 23651 23585 23553 23504 23478 23403 23406 23445 23465 23511 23562 23568 23556 23536 23522 23497 23469 23397 23390 23357 23399 23385 23425 23404 23441 23434 23415 23419 23491 23506 23456 23433 23314 23258 23236 23225 23227 23182 23091 23050 23011 22956 22875 22837 22751 22728 22735 22799 22827 22879 22959 23028 23074 23164 23191 23181 23170 23191 23199 23152 23194 23203 23003 22866 22774 22657 22528 22437 22338 22252 22164 22044 21982 21902 21817 21709 21617 21575 21546 21511 21488 21409 21261 21166 21095 21044 21061 21023 20979 20986 20898 20855 20732 20611 20639 20656 20640 20643 20696 20716 20742 20750 20716 20734 20801 20832 20838 20805 20781 20715 20690 20714 20647 20620 20568 20531 20542 20522 20525 20523 20476 20450 20417 20405 20336 20262 20207 20164 20157 20091 19993 19853 19808 19732 19777 19781 19799 19872 19850 19770 19785 19761 19751 19750 19743 19721 19614 19509 19461 19406 19370 19291 19151 19070 19084 19089 19021 18986 18927 18916 18865 18812 18737 18677 18591 18512 18421 18353 18281 18274 18253 18188 18126 18122 18097 18120 18131 18110 18118 18116 18138 18119 18066 18045 17999 17987 17942 17906 17835 17763 17728 17737 17721 17731 17699 17651 17696 17685 17697 17654 17647 17690 17723 17697 17669 17602 17545 17496 17473 17458 17402 17295 17287 17251 17175 17054 17044 16986 16971 16912 16879 16805 16780 16817 16842 16835 16856 16861 16846 16887 16871 16913 16959 16955 16992 17060 17153 17200 17207 17181 17179 17156 17152 17183 17222 17270 17190 17091 17054 17003 17000 16986 16993 17021 16958 16947 16944 16934 16933 16877 16821 16703 16647 16611 16575 16560 16511 16419 16339 16230 16222 16182 16129 16066 16022 15933 15925 15877 15852 15877 15847 15871 15835 15778 15766 15745 15711 15722 15677 15586 15630 15619 15630 15598 15567 15533 15534 15528 15501 15447 15403 15423 15430 15379 15341 15250 15132 15065
